ncols         337
nrows         31
xllcorner     408592.75
yllcorner     6871299.11
cellsize      5
NODATA_value  -9999
610.915 611.5245 613.0427 614.4134 615.5247 616.7236 618.0381 619.7124 621.0007 622.5933 625.315 627.7903 630.5222 633.2264 635.4141 637.896 639.3785 642.5981 644.0331 647.228 650.4294 652.5818 655.4331 656.9041 659.3906 660.6686 662.6094 664.5177 666.3381 668.8581 669.7779 671.6918 673.0646 674.1566 676.2113 677.9413 680.0431 681.6461 682.2933 682.8185 685.4733 686.7348 688.7552 689.1769 689.88 690.5796 691.8087 692.2788 693.239 694.3077 695.6903 697.7065 699.2525 701.0325 702.5726 704.463 706.0105 707.876 708.4177 708.1917 709.2902 712.3746 716.6138 717.1479 718.6216 719.7015 720.7953 722.8704 724.1832 726.5507 729.9742 732.6816 735.036 737.4198 739.8681 742.0461 743.5145 745.0566 746.6808 748.8619 750.8242 753.236 754.0396 755.3396 757.9988 762.0833 765.5437 767.6567 769.3935 772.666 774.9083 778.2639 780.2538 781.0818 783.5999 787.694 790.1158 792.1042 792.9131 793.6655 794.0518 796.3303 796.3284 797.0733 798.2783 799.8491 800.6412 802.3414 805.1025 806.7832 808.3998 812.1642 813.7044 814.8746 816.4133 818.0908 819.4946 820.7729 822.0168 822.8915 824.0502 825.6021 826.9574 827.673 829.3866 831.0836 832.2631 832.2262 831.564 832.1151 833.2482 835.3279 839.4055 842.0206 843.8561 847.4901 846.9246 845.9249 850.4317 851.7283 851.7524 852.0405 852.9529 854.0822 856.4494 857.7568 859.3107 861.1462 863.6547 865.543 870.6165 870.9321 872.955 875.7781 876.7051 876.9798 877.1828 877.5038 879.1691 879.4152 879.418 879.7814 878.6408 877.0892 876.2908 876.546 876.873 877.5077 877.3658 878.4681 880.8816 883.2736 887.5182 891.5223 898.64 902.0231 903.374 904.6135 905.1064 906.0912 906.7016 907.8383 906.965 907.3889 907.6542 907.5653 907.1641 905.9724 905.3842 906.3037 906.8063 906.8019 906.9048 906.5012 906.729 907.2859 907.7656 910.3596 908.4683 909.647 913.376 917.8438 918.6989 919.4177 919.8828 919.9558 922.8601 925.1355 926.9724 927.1557 930.3947 933.4775 936.7476 937.6859 939.0057 940.0254 941.1318 942.1018 946.0345 949.3622 950.0463 949.6052 949.1666 952.9233 957.5269 963.232 966.8568 967.5978 970.5206 973.2216 975.9162 978.9351 980.5921 982.8839 985.6565 987.8922 989.4573 991.2845 993.3818 994.1932 994.3058 995.9496 997.6245 998.7371 1003.509 1006.014 1008.496 1011.819 1014.703 1017.098 1020.333 1023.364 1026.023 1028.572 1030.965 1035.032 1040.243 1043.594 1050.378 1056.526 1061.549 1066.681 1072.582 1073.96 1075.492 1077.876 1079.837 1077.993 1077.261 1078.492 1080.705 1078.982 1080.348 1088.723 1092.443 1095.099 1096.99 1099.838 1102.503 1107.281 1112.52 1114.738 1117.161 1119.1 1121.385 1121.962 1124.836 1129.923 1134.655 1138.501 1140.537 1148.666 1152.171 1154.098 1157.628 1160.194 1163.056 1164.086 1166.661 1171.495 1173.873 1176.426 1177.908 1178.96 1181.855 1186.353 1190.84 1195.317 1203.807 1211.477 1215.562 1219.06 1224.382 1226.686 1227.152 1227.329 1228.842 1228.949 1228.434 1230.12 1230.504 1230.699 1228.764 1226.264 1223.247 1221.487 1219.418 1217.623 1216.914 1216.857 1215.937 1214.863 1214.469 1214.372 1214.625 1215.772 1214.297
610.2296 611.7958 614.223 615.1539 616.3952 617.423 618.7247 620.2646 621.6512 623.9783 626.3898 628.8608 631.3227 632.9922 635.6465 638.1494 640.0128 641.9889 644.896 648.3808 651.5227 653.9133 656.5013 658.5153 660.4734 661.999 663.4116 665.2879 667.2224 669.7167 671.6932 672.7519 674.1244 676.052 677.3696 679.8004 682.0358 683.6674 683.0892 684.0463 686.5116 686.4647 688.2727 689.5947 689.8277 689.9065 692.2991 692.6943 693.2927 694.9366 696.2556 698.2614 701.1759 702.0353 703.306 705.0184 707.1619 708.8534 710.141 711.1625 713.4421 714.1998 715.8105 718.823 720.0927 721.0189 723.2498 725.16 727.0659 729.9445 732.3444 735.4272 738.0379 739.8401 741.7082 744.7733 745.2813 747.6275 749.7051 751.0629 753.2971 756.0827 758.5421 760.8015 763.6196 764.9354 767.0377 770.2344 771.082 773.4537 776.956 780.6132 783.7248 785.4896 787.8085 791.5358 793.6356 793.8802 795.2294 795.2081 796.687 798.3439 798.9718 800.2079 800.5527 802.7578 803.988 805.5937 808.1982 809.6622 814.5883 815.514 816.5021 818.1157 819.6109 823.5743 822.5541 824.042 825.4215 826.9944 827.2509 829.1237 830.3681 830.7692 832.9966 834.9744 835.0209 835.0583 834.8186 835.1022 836.567 838.3881 841.9285 844.6605 848.1702 850.1721 850.8525 849.9571 851.5025 853.979 855.168 854.3329 854.809 856.2584 857.3975 859.0795 860.5881 863.0621 866.5673 868.1732 872.1987 874.6469 877.1969 878.6127 879.2714 879.7743 879.9462 880.7509 881.6814 882.0081 882.0217 882.5486 881.4825 880.6859 880.6806 880.1648 880.8742 881.5587 881.4708 881.3646 883.3491 885.132 888.7657 892.8248 898.0681 902.9683 905.8784 906.0186 906.6394 907.4796 908.1445 909.1725 909.0413 909.5165 909.5857 909.9628 909.9359 908.4452 907.7541 908.9858 909.6993 909.9124 910.9843 909.9434 910.9555 910.6024 911.6668 913.0502 914.3022 914.2107 915.5499 920.1193 920.4968 921.178 922.7192 924.1894 924.9716 928.7158 928.8784 930.2485 931.6515 934.4114 937.772 941.6578 944.8864 945.9431 945.699 946.8251 949.3624 952.2498 953.7778 955.0209 954.8116 954.9558 960.424 964.1221 969.0978 970.5754 971.7651 974.6209 977.8623 980.7643 983.556 985.3843 987.7736 989.7341 990.9247 992.9708 995.495 997.6498 998.7764 999.6605 1001.997 1002.474 1004.118 1007.191 1010.019 1013.43 1017.083 1020.555 1023.077 1026.217 1028.401 1031.637 1033.693 1038.083 1043.761 1047.659 1051.599 1059.906 1066.044 1071.399 1075.981 1078.213 1080.4 1083.611 1084.463 1083.403 1082.064 1082.196 1083.791 1083.608 1083.468 1085.388 1091.775 1096.668 1100.083 1103.996 1107.928 1113.023 1115.685 1118.741 1120.414 1121.688 1123.666 1126.04 1127.046 1130.529 1135.333 1140.138 1142.705 1149.153 1153.968 1156.308 1160.727 1163.868 1164.82 1166.989 1168.986 1172.948 1175.653 1178.195 1180.863 1183.564 1184.529 1190.123 1193.338 1197.962 1202.852 1212.632 1216.81 1221.805 1225.392 1229.26 1230.079 1232.114 1232.822 1234.543 1234.618 1235.894 1237.891 1236.409 1236.479 1234.597 1231.041 1228.63 1225.515 1222.252 1221.353 1220.416 1219.444 1219.158 1218.286 1217.781 1218.088 1218.499 1217.303
609.9783 611.8788 614.1354 615.5798 616.6359 618.4157 620.1078 621.2516 622.9719 625.4684 627.5631 629.6475 631.4476 633.7131 636.0068 638.2034 640.528 643.0976 645.8085 649.7845 651.7644 654.4179 656.7504 659.473 661.9852 663.6221 664.7035 665.8932 667.6705 670.2196 672.3244 673.8798 675.2239 676.6569 677.8281 679.7246 681.9418 684.3426 686.2513 685.5303 686.6243 686.8787 687.2432 689.0469 689.9205 691.3265 692.7026 694.5048 695.1672 694.9587 696.4413 698.2904 700.6392 702.769 704.1138 705.7089 707.0793 709.7223 710.9337 712.4928 713.3114 716.5648 717.8275 717.3613 720.3491 722.9838 725.2646 728.3085 730.8827 732.8207 734.7108 737.3322 740.176 742.3356 745.3837 746.8676 748.3346 750.1955 751.522 753.5989 755.7564 758.8467 762.2324 764.2191 766.1837 767.3044 770.0298 772.0253 773.4461 776.2053 778.5853 784.6323 786.9769 789.2856 791.9777 793.8778 795.2626 796.0144 797.2174 797.9128 799.071 800.5536 802.1899 802.2035 802.7371 805.8641 808.2195 810.8383 813.3134 815.8156 817.9714 818.6766 820.021 820.8275 823.5536 825.9673 825.9542 827.1178 829.0233 830.4089 830.9301 834.1462 834.6832 835.5926 836.6471 838.2659 838.627 838.2003 838.1642 838.172 839.6816 841.323 843.9289 846.6006 850.3304 852.2615 852.9434 853.1539 853.7644 856.3026 857.4544 857.4206 857.1872 858.506 859.8481 862.3105 863.5416 865.6693 868.6149 871.036 878.3636 878.1769 880.622 882.1282 882.5315 882.7695 883.4017 884.1096 884.3353 884.8115 885.8058 886.5742 885.2047 884.7168 883.8768 883.7225 884.0129 884.0579 883.4621 884.458 886.6585 887.5164 890.4465 893.9863 899.4531 903.3771 905.8527 907.6865 909 909.8131 909.9591 910.6422 911.4122 911.8802 912.2383 912.7474 912.8038 910.7618 910.7526 911.1881 912.7302 913.288 913.7375 913.5077 914.4576 914.6314 916.6265 917.126 916.4977 917.6823 919.3472 922.0393 922.4208 923.5587 925.6285 925.9855 926.4422 931.1664 931.9681 934.0709 935.73 936.4008 939.1396 943.9325 948.0199 951.2682 953.9766 954.5342 953.3588 953.9206 956.634 959 960.0092 958.5109 961.2248 965.3657 970.1737 972.9424 973.9191 976.8634 979.6303 982.6621 986.5046 988.1306 989.9537 991.3905 992.5187 994.2723 995.9541 999.415 1001.721 1003.659 1005.024 1005.539 1005.12 1008.351 1010.885 1014.755 1017.225 1020.789 1024.729 1028.016 1031.051 1033.57 1036.39 1041.481 1046.529 1051.628 1057.934 1064.306 1068.429 1077.22 1079.72 1082.001 1086.726 1088.144 1088.882 1088.875 1086.314 1086.818 1087.761 1088.498 1088.767 1088.972 1090.072 1098.095 1103.48 1109.159 1111.483 1115.807 1117.94 1120.506 1123.44 1125.269 1126.435 1128.631 1132.203 1132.58 1136.007 1140.369 1143.971 1148.152 1156.612 1158.1 1162.514 1165.801 1168.156 1171.903 1173.964 1174.967 1177.846 1180.187 1182.984 1186.927 1187.344 1192.203 1195.9 1201.274 1205.214 1212.564 1218.877 1222.498 1227.224 1232.509 1233.985 1234.271 1235.676 1237.424 1238.567 1240.84 1240.269 1241.926 1242.221 1241.087 1238.082 1234.832 1230.968 1227.912 1226.128 1224.268 1223.025 1222.033 1221.104 1220.93 1220.861 1220.642 1219.906
611.0516 612.6812 614.2461 615.4117 617.2717 619.0602 620.6542 621.6625 624.1002 626.3328 628.9338 630.7313 632.2167 634.0708 636.2788 639.1112 640.7206 643.7521 646.1594 650.3907 653.333 655.7239 658.3181 660.2562 662.8177 664.5207 666.2708 668.2893 668.3994 670.8805 672.6073 674.0524 675.1542 676.8787 677.7905 679.8499 681.6076 684.0206 685.0617 686.8977 688.7848 688.8592 687.7815 689.1384 691.4489 693.0779 693.5771 694.6559 695.7174 695.8838 697.2646 699.75 702.277 703.5385 704.4307 705.6119 706.6715 708.2802 710.7419 713.1315 715.2934 717.0555 719.6248 720.8787 721.2081 724.7521 727.1566 730.4346 733.4459 734.9124 737.3896 739.4742 741.949 745.2723 747.5684 748.9826 750.6355 752.1132 753.8934 755.5606 758.7009 762.8354 766.2121 767.8794 768.6537 769.6686 771.7597 774.1565 775.9621 778.6866 781.6641 786.3798 789.382 791.8903 794.4809 796.0488 797.4717 798.313 799.3423 799.8465 801.5883 803.178 804.9391 805.5069 807.1317 809.8094 811.7844 815.3198 817.2025 819.1915 820.8543 822.41 824.0118 825.4245 826.9267 828.3183 829.5265 831.4578 832.8738 834.752 836.7883 839.5311 839.0089 839.3758 841.6042 841.9475 842.3303 841.9999 841.8978 842.1806 843.9879 844.1636 846.0782 849.1652 852.5153 854.4229 855.0056 855.2234 855.5104 856.9512 859.7786 860.0903 859.9397 860.304 861.6509 863.9143 865.975 868.0701 871.8507 877.583 881.3104 882.6281 884.5971 885.1334 886.4753 886.5988 886.9495 887.2815 887.7681 888.5448 890.1245 890.6822 889.0718 887.8995 886.6922 886.4924 887.0342 887.1188 886.9117 886.6558 889.5529 890.2996 893.3773 897.3185 900.8311 904.0101 906.2687 908.8844 910.2862 911.4211 912.1818 912.5774 913.1616 914.1093 914.3588 915.43 915.4263 912.6343 912.9404 913.3791 915.5831 915.9968 917.0916 918.088 917.9641 918.7216 920.3668 920.4487 920.6733 920.1432 922.3655 924.4657 925.2565 926.5518 928.6951 929.0663 931.0016 932.7065 935.4468 938.1917 939.0316 940.5381 941.0466 945.4629 949.4596 953.4475 957.3834 960.0049 958.8321 957.8879 958.507 961.7333 963.6771 964.0101 962.4557 968.4274 972.3076 974.9797 976.5238 978.9973 981.0466 985.4157 988.8611 990.2665 992.8435 993.367 994.6063 995.316 997.438 1000.31 1003.851 1006.49 1008.544 1008.617 1008.069 1009.919 1012.151 1016.508 1018.331 1020.915 1024.543 1027.912 1031.038 1035.214 1040.5 1045.411 1050.634 1054.226 1062.358 1068.006 1072.042 1079.384 1083.66 1085.596 1090.481 1091.491 1091.951 1092.158 1090.235 1092.464 1091.278 1092.562 1092.931 1093.82 1093.588 1095.724 1104.896 1110.548 1115.327 1117.737 1119.845 1122.63 1125.231 1127.654 1130.033 1131.429 1135.241 1136.993 1139.639 1143.413 1145.438 1149.1 1155.249 1159.664 1163.775 1166.906 1172.476 1174.743 1177.671 1181.055 1183.141 1183.767 1185.817 1188.806 1190.308 1194.251 1200.268 1203.821 1207.381 1211.641 1221.503 1226.291 1229.204 1234.409 1237.529 1239.471 1238.769 1240.496 1242.114 1243.271 1244.663 1245.319 1246.451 1246.396 1243.9 1240.041 1236.544 1232.909 1230.49 1228.602 1226.764 1225.52 1224.266 1223.579 1223.572 1224.599 1226.338
611.8173 613.8076 615.1354 616.2344 617.7173 618.625 619.9175 622.4636 624.4495 626.4525 628.6083 630.3409 631.5786 633.4671 636.3218 639.4958 641.7271 643.5787 647.1448 651.4685 654.025 656.616 659.1641 662.0446 664.149 665.1791 667.3124 669.7107 670.663 671.9106 673.3048 674.1713 675.27 676.6196 678.2003 679.7533 682.5054 684.0284 685.3256 686.8555 688.368 691.4285 690.2245 688.6991 691.0798 692.4054 693.6471 695.2674 696.913 697.4379 698.1136 700.0316 701.7428 702.7784 703.6268 704.988 707.1934 708.7133 709.9406 713.0128 716.3914 718.886 721.0344 722.337 724.5206 725.2869 729.3813 732.0278 734.9714 737.8358 740.1705 742.1524 744.2952 748.3388 749.8076 752.1686 752.8382 754.4589 756.8269 760.4283 762.0143 766.9278 768.1064 770.2736 771.9709 773.488 774.8387 777.0529 779.1143 780.9802 786.4954 788.5079 791.9207 794.6733 796.8381 798.209 799.696 800.3925 801.184 801.9339 803.6175 805.2462 806.678 807.5808 811.4854 814.2912 816.3199 818.5881 819.9852 821.9644 823.5654 825.9106 828.6942 829.0236 830.3362 831.462 832.5241 834.5786 836.1324 838.8058 842.0401 843.1962 844.0732 844.1151 844.8945 845.5385 845.5957 846.4533 846.3626 846.1063 847.368 847.46 848.556 851.5473 854.6877 856.2242 857.0889 857.6421 857.9864 858.6761 861.2295 862.4916 862.6608 862.3198 864.1632 865.7979 867.6938 870.6624 874.731 881.4095 884.4268 885.4841 887.6328 888.8578 889.5465 890.8581 891.2605 892.4009 893.5037 894.0038 894.2296 893.2817 891.73 890.8762 890.4526 889.738 889.6817 890.1281 890.1616 890.3028 891.5975 893.4666 897.2129 900.3367 903.3184 905.1232 907.4167 908.869 911.0101 912.6459 913.4539 914.9076 915.2003 916.0385 916.7667 917.4575 918.2729 915.9636 915.7931 916.8108 919.217 920.7676 920.3739 919.8951 922.3063 922.2702 922.8932 923.5172 924.3224 925.6868 927.412 928.7255 929.1146 930.0852 932.5463 933.6447 935.6395 935.0566 938.8879 941.4234 942.2902 943.8489 944.6907 949.4835 952.226 954.4735 959.8392 962.9157 962.8187 962.3445 961.9758 964.6422 967.0265 968.3412 967.2936 967.1971 971.1362 975.7266 979.7624 981.4997 983.4531 986.4336 989.3831 991.8412 994.941 996.2278 996.4671 997.3515 999.6626 1002.634 1005.529 1008.606 1011.068 1012.65 1011.348 1011.453 1014.438 1017.402 1019.602 1021.635 1024.339 1027.559 1030.582 1039.198 1044.897 1050.364 1055.441 1058.232 1063.431 1070.866 1074.522 1079.361 1086.268 1091.627 1095.832 1094.676 1096.071 1095.927 1095.091 1095.17 1096.539 1097.494 1097.214 1097.092 1097.134 1096.239 1100.108 1111.794 1116.351 1120.209 1122.314 1125.505 1127.348 1130.669 1133.528 1135.4 1138.591 1140.523 1142.616 1145.064 1148.113 1150.254 1155.76 1159.665 1164.567 1168.597 1174.659 1177.493 1180.345 1182.256 1187.527 1189.479 1190.095 1191.37 1193.011 1196.972 1202.524 1205.297 1208.88 1214.068 1225.451 1231.381 1235.069 1236.627 1239.915 1243.89 1246.326 1246.065 1248.057 1248.207 1248 1248.921 1249.9 1251.281 1249.831 1246.624 1243.146 1239.224 1235.589 1232.344 1229.994 1228.75 1228.263 1226.92 1226.984 1228.99 1230.099
612.7544 613.9814 614.8723 616.1742 617.1801 618.66 620.4099 622.4979 624.9832 627.4273 629.0942 630.4691 631.3476 634.1567 637.2139 639.3617 640.8182 643.5512 647.1371 651.0862 654.3964 657.4013 659.5608 662.763 664.635 666.5984 669.1164 670.9252 672.1304 672.9889 674.2377 675.1287 676.3849 677.8467 679.7714 681.0502 682.6865 684.1763 685.8289 686.9531 689.2291 692.2387 692.558 691.0662 690.5756 691.4865 692.7444 694.9478 696.5701 698.4646 700.1576 701.9124 702.4718 702.9604 703.9379 705.45 707.0067 708.9002 710.8918 713.1249 715.5988 718.234 722.033 725.0003 726.8881 729.3271 728.8186 732.3209 736.3779 740.9686 742.751 744.881 749.478 750.7521 752.9822 754.5976 755.6283 757.2007 759.7703 763.3379 766.3446 768.6048 770.6673 771.7607 773.7169 775.4449 779.1171 782.5756 784.6284 784.757 788.3657 790.5317 793.7299 797.0824 799.12 800.4384 801.6166 802.6899 803.4631 804.0542 806.045 807.4583 808.8168 811.7711 814.5715 816.8477 819.241 820.8445 822.6688 824.5232 826.435 828.8417 831.0501 832.4135 833.418 834.3011 836.8494 839.5853 840.3803 845.0355 846.012 847.2306 847.8846 848.5577 848.9761 849.2736 849.9347 851.1277 850.8973 850.1872 851.2676 852.4476 852.373 854.2343 856.1597 858.998 860.1602 860.3007 861.0118 861.1528 863.1049 864.9545 865.5178 865.3795 866.3298 868.216 870.1419 873.0173 876.7711 883.4045 886.3837 888.9562 890.8924 891.7811 894.3217 895.2394 894.8045 895.5792 897.3539 897.6584 897.2675 895.7441 895.3997 894.2731 893.3556 892.6636 892.7889 894.8088 894.2236 895.8945 895.4504 897.647 902.5751 903.6516 905.1219 906.9338 909.2808 909.8681 912.1015 913.1766 915.6085 916.5304 917.0674 917.9342 918.8681 919.9292 920.3356 918.6064 918.7187 920.5829 921.4311 922.4695 923.4484 923.526 925.1677 925.6324 926.6974 927.3845 929.7045 930.7681 930.6637 933.7537 933.5779 933.9767 935.8891 936.4628 937.0878 940.1771 942.8249 945.4363 945.5974 947.3371 947.1193 951.8428 955.6695 957.1988 961.1746 964.9301 966.3025 966.8264 966.3691 968.1098 969.8455 971.6765 971.6714 970.6362 971.5003 975.2012 980.1798 983.6531 985.8666 988.4058 990.7712 992.9636 996.2277 998.653 999.6344 1000.303 1002.145 1005.093 1007.241 1010.382 1013.501 1015.704 1014.889 1014.574 1015.518 1019.41 1021.857 1023.285 1025.918 1028.63 1032.126 1043.683 1049.225 1053.297 1056.618 1061.155 1066.115 1072.219 1075.02 1078.809 1090.849 1094.339 1099.322 1099.651 1100.039 1098.797 1099.356 1099.652 1100.621 1100.636 1101.977 1101.485 1101.355 1100.017 1101.744 1104.326 1113.54 1119.123 1124.107 1126.532 1129.21 1131.996 1135.31 1138.287 1141.201 1143.082 1146.825 1150.747 1151.458 1154.226 1158.684 1161.993 1166.246 1171.537 1176.473 1178.36 1184.391 1186.888 1190.216 1194.751 1195.361 1196.2 1196.5 1200.334 1206.444 1207.999 1213.424 1218.699 1229.577 1235.344 1239.839 1244.081 1242.742 1245.395 1250.141 1251.452 1252.875 1252.63 1251.729 1252.958 1253.308 1253.711 1253.004 1250.643 1247.552 1243.736 1239.149 1236.526 1234.291 1232.871 1232.495 1231.236 1232.209 1232.728 1234.201
612.8965 614.0405 614.5775 615.8989 617.6104 618.9191 620.9174 622.7879 625.4595 627.0461 628.8298 629.3683 631.7411 633.7649 636.5742 638.9466 641.8549 646.3687 648.6495 651.3149 655.3533 658.5604 660.5613 663.004 665.2703 667.5714 670.0594 671.7006 672.39 673.3398 674.8003 675.5082 677.4111 678.6268 680.7871 682.4025 683.8583 685.2998 686.065 687.1039 689.8911 692.4247 693.6259 693.3046 692.257 691.5886 693.402 694.5515 695.7574 698.466 700.3099 701.4122 702.5519 703.177 704.6743 706.3682 707.8788 710.3051 711.6252 714.0466 715.9078 718.4326 721.9623 725.9988 728.114 731.0007 733.13 733.0972 736.4341 741.3258 745.5134 747.9338 751.9745 753.801 755.4193 756.4611 757.7288 759.9931 765.3867 768.0559 768.7267 770.8593 772.4035 773.5587 775.6475 776.943 782.3834 784.7335 787.1242 788.4485 791.1665 793.1122 796.3538 798.7308 801.2057 802.6199 803.8364 804.4467 805.5296 807.0614 808.3095 811.9332 815.0386 814.9966 817.1309 819.4246 821.9942 822.9362 824.6879 826.3687 828.8492 831.4083 833.8249 835.6078 836.7769 840.2525 841.4451 842.8455 847.0799 848.1254 849.2858 850.574 851.8309 852.3371 852.8862 853.6511 854.8796 854.7688 854.504 853.7349 854.6119 855.6876 855.8582 856.6975 858.02 860.4744 862.3528 863.1818 863.3051 863.6736 865.4139 867.058 867.9893 867.9523 869.6847 871.2747 873.9165 876.9198 879.9426 887.3822 889.5912 892.6696 896.1244 898.1494 897.6025 898.7959 899.9284 899.8425 901.3732 901.6965 900.8038 899.5974 899.1523 897.5275 896.8468 895.4929 897.9102 896.982 897.741 900.1487 900.3323 905.336 907.5854 906.3832 907.5317 909.2778 911.23 912.2656 913.4664 915.5152 916.9661 918.6067 920.0028 920.3727 920.9871 922.6484 922.9067 921.2151 922.3928 923.4429 924.3155 925.1495 926.6736 926.7532 929.1429 929.4764 930.4669 930.7925 934.4045 932.2521 933.903 935.28 936.209 937.4077 939.8112 940.0037 941.1678 945.7977 947.5252 948.1306 949.2451 951.5101 953.7926 955.0832 958.5405 959.8785 963.613 965.4408 968.1124 969.0328 969.8416 969.908 972.2997 974.0753 975.6474 974.9665 975.9711 978.1035 980.5563 983.9576 987.6815 989.7653 992.3239 995.1716 996.984 999.806 1002.316 1003.304 1004.328 1006.536 1009.471 1012.389 1015.775 1017.961 1018.672 1017.664 1018.207 1020.033 1022.732 1025.675 1027.968 1030.375 1032.805 1043.515 1049.99 1054.784 1059.887 1064.223 1067.33 1071.169 1076.033 1079.803 1092.297 1097.799 1101.041 1102.792 1103.674 1102.034 1103.324 1103.12 1105.402 1104.889 1107.825 1106.026 1105.766 1105.896 1104.084 1105.732 1108.521 1114.661 1123.346 1127.108 1130.443 1134.076 1137.199 1140.021 1142.452 1145.704 1148.485 1152.947 1154.992 1158.105 1161.467 1164.694 1167.516 1171.988 1177.512 1180.031 1186.55 1190.247 1195.151 1197.173 1200.412 1200.339 1199.833 1204.722 1210.104 1211.511 1216.66 1223.448 1233.006 1240.232 1243.656 1248.313 1250.099 1248.318 1252.893 1255.669 1256.337 1256.704 1257.015 1256.56 1257.363 1256.233 1255.331 1253.133 1251.333 1247.465 1243.89 1241.002 1238.36 1236.795 1235.272 1234.604 1235.714 1235.524 1236.971
611.8851 612.7061 614.286 616.0565 617.5236 619.0811 621.2119 622.5152 625.5577 626.269 627.1526 628.4264 631.7302 633.5134 636.3541 639.9943 642.8738 646.274 650.2781 652.3513 655.4497 659.1855 662.1811 664.3353 666.1826 668.7784 670.4527 671.9945 673.0679 673.944 675.2938 676.0703 677.5908 679.9116 681.2935 683.0059 684.5175 685.6436 686.9822 688.3103 689.6575 692.5236 693.3806 694.215 694.0455 693.5117 693.2411 694.8072 696.0009 697.2888 700.2655 702.8417 703.8077 705.3154 706.0424 706.9232 709.4569 711.5356 714.5215 716.952 717.8253 720.2526 723.2972 726.2326 729.7571 732.8968 735.3052 736.3687 738.431 742.9094 745.9859 750.4616 754.1011 755.6792 756.941 758.2905 759.7433 764.8298 767.211 769.2716 770.4573 773.1499 774.1974 775.97 777.8903 781.5929 784.6298 787.8517 789.1118 791.9058 794.6301 797.5569 798.6979 799.7791 802.977 804.5393 806.0414 807.291 808.3376 809.895 810.9632 813.9976 817.0574 818.9147 820.9362 822.4475 824.1057 824.6346 826.2823 829.0526 831.5744 833.9634 836.4824 837.8259 840.2756 842.4338 845.0211 846.8867 851.8331 852.7443 853.4064 855.1458 856.2398 856.2032 857.0554 857.7891 858.0527 858.4965 858.1503 857.5069 857.1215 858.6044 858.9457 859.7112 860.2701 861.8394 864.1168 864.7825 865.6871 865.9277 867.4784 868.8155 870.06 871.0791 874.4832 876.5823 876.3515 878.0518 882.8294 890.1265 894.6378 898.1601 899.2866 900.2105 901.645 902.0292 902.6646 902.9279 903.4446 903.3301 903.0107 904.3455 904.2282 905.153 902.4957 903.899 901.5428 902.9714 901.9506 909.2344 907.5872 909.8495 909.3252 908.6391 909.2362 910.8857 912.7328 913.601 914.9347 917.4455 919.3374 920.7304 921.7311 923.2517 923.7675 924.635 925.1279 924.2706 925.0895 926.1647 927.4244 927.918 930.2563 929.8211 931.1453 932.3591 934.4074 935.4239 935.753 934.5627 937.3387 939.087 939.4132 941.2988 943.0079 942.5422 946.152 948.4139 950.0634 951.4189 953.5865 955.1348 959.0602 960.4075 960.6421 962.2841 964.0873 968.1211 969.4226 970.8462 972.6776 972.4354 975.8551 977.6381 979.9297 978.8839 979.6642 981.3711 983.5988 986.0931 989.2171 992.0174 993.8533 997.695 999.657 1001.223 1004.158 1005.574 1006.988 1008.807 1011.354 1014.251 1017.11 1018.915 1022.006 1021.265 1021.41 1022.665 1025.327 1026.632 1029.69 1033.05 1035.612 1043.912 1051.414 1056.108 1059.018 1064.734 1068.647 1071.868 1076.28 1080.871 1090.188 1098.887 1102.462 1105.387 1106.252 1106.225 1106.186 1108.045 1109.999 1108.767 1109.948 1111.164 1110.617 1111.363 1109.798 1109.677 1110 1112.89 1117.622 1125.338 1131.833 1134.831 1138.602 1142.253 1144.597 1147.904 1151.549 1154.807 1157.626 1161.05 1164.466 1168.918 1171.37 1174.546 1179.699 1182.297 1187.496 1195.547 1199.91 1202.299 1203.896 1205.407 1203.746 1205.769 1212.058 1214.847 1219.273 1227.491 1237.019 1243.335 1248.826 1251.522 1254.904 1255.752 1256.36 1258.114 1259.723 1260.592 1260.858 1263.898 1261.75 1262.204 1259.608 1257.418 1254.625 1251.816 1248.202 1245.268 1241.845 1238.651 1238.858 1238.22 1238.674 1238.637 1238.762
612.2188 613.2244 614.1543 616.2809 617.1558 618.9833 620.4089 622.1875 624.5623 626.7792 628.3981 629.8702 632.1841 634.0093 636.8394 640.6389 643.5304 647.8474 651.0712 653.8397 656.586 659.3364 663.2996 666.0233 667.0527 669.6115 671.3508 672.1467 673.2295 674.3326 675.2256 676.4216 679.5602 680.5441 682.1586 683.5714 684.9711 685.8396 687.1953 688.8812 689.3674 690.7405 692.6539 694.301 695.0273 695.9374 696.3663 696.6066 696.1506 698.0466 699.4094 701.7985 705.2754 706.6761 707.6893 709.0941 711.0227 713.5122 715.8672 719.0209 721.9828 723.1498 725.0482 728.6295 731.3882 734.6571 737.993 740.7402 742.9291 745.9931 750.0099 754.1748 755.9727 758.1432 759.4061 760.6312 762.6182 766.6245 769.2012 771.4423 773.1848 774.2914 776.8665 779.3448 780.4453 785.4162 788.1055 790.8025 791.9931 797.4615 798.3993 799.7674 801.6486 802.69 804.6891 806.6032 808.1484 809.4497 811.1315 813.1595 814.9699 816.5972 819.8623 821.7657 823.5469 824.6342 826.1032 826.6006 828.2267 831.1222 834.6095 839.132 841.2029 844.201 844.0444 846.827 852.9349 854.1213 855.8762 856.3914 857.061 858.9024 860.8012 861.2824 861.137 861.2404 861.9578 862.0668 862.0441 861.5975 861.1749 861.6694 862.1254 862.4587 862.7751 864.2646 865.3743 866.9282 867.6544 868.2283 869.3618 870.8036 872.2341 873.2759 876.1454 878.9499 886.579 890.8355 891.4955 893.1254 899.0298 901.8329 901.7093 902.555 904.1266 904.2661 904.5914 905.3564 905.8711 905.6733 907.6683 906.9927 910.4855 910.4019 908.3158 906.8271 905.3625 906.3493 910.4318 912.8931 911.4662 912.1835 911.0784 911.3832 911.879 914.1437 914.7501 915.4335 917.0453 918.5511 920.7144 922.336 924.4152 925.4723 926.2776 927.2462 927.3954 927.3138 927.0746 928.5184 930.5787 931.2363 932.6821 933.0824 933.5771 935.0756 937.3648 937.6638 938.7366 939.0475 939.3423 941.6855 943.0397 945.0245 946.7001 946.1679 948.2243 950.2108 951.4877 955.3413 957.0343 958.4338 959.8294 961.9135 963.3536 964.9937 967.0192 968.1694 971.3416 972.4475 974.0349 975.5045 978.673 980.8446 982.7303 983.2806 982.8062 985.155 986.8884 988.4142 990.6459 992.7212 995.6743 1000.944 1002.577 1004.288 1006.347 1007.948 1009.421 1011.395 1013.809 1016.707 1019.341 1022.104 1024.243 1025.17 1024.744 1024.93 1027.365 1029.657 1031.834 1035.147 1038.35 1044.277 1050.756 1056.036 1059.283 1063.332 1067.488 1073.153 1077.795 1081.728 1087.514 1096.122 1103.707 1108.027 1109.448 1111.724 1110.097 1111.939 1113.694 1112.821 1112.861 1113.905 1115.014 1116.109 1115.894 1114.138 1113.833 1115.454 1119.139 1123.075 1132.089 1136.013 1141.209 1144.197 1146.544 1149.353 1153.952 1159.281 1160.755 1164.218 1166.612 1171.943 1173.985 1176.649 1179.863 1183.789 1192.646 1199.455 1203.154 1207.355 1208.422 1208.622 1208.125 1209.01 1213.159 1218.115 1222.117 1231.697 1240.659 1246.812 1250.923 1255.663 1259.009 1259.769 1259.761 1261.125 1262.284 1263.53 1264.066 1267.411 1266.319 1266.273 1264.834 1261.215 1258.041 1254.661 1250.898 1250.523 1246.302 1244.432 1242.334 1241.854 1241.667 1241.809 1241.454
612.1304 613.2895 615.0334 617.0033 618.1574 619.7034 621.1337 623.0765 624.9742 626.9094 629.4604 631.1413 633.3386 635.5601 638.6086 641.4995 645.2598 649.4714 651.4734 654.7749 658.0889 660.3458 663.5652 665.78 667.3755 670.4656 671.5829 672.362 673.3492 674.5294 675.5408 676.7656 679.7619 681.0327 682.6657 684.072 684.5676 685.5349 686.4742 688.074 689.6597 691.2079 691.8806 693.2881 694.669 695.798 697.5792 698.6523 698.2493 698.8034 699.9914 701.5621 703.328 705.3749 708.2689 710.4419 712.6401 715.0729 717.934 720.1695 722.3434 724.3599 727.8693 731.1159 733.8357 736.9217 740.637 743.3271 747.7131 750.7155 753.3325 754.6363 757.3881 759.2333 761.7767 763.4343 765.6031 768.7044 771.0076 773.5487 775.5478 777.5428 779.0809 781.0933 784.4527 787.2867 791.9941 795.0082 798.8133 799.584 801.1172 802.1506 803.6895 805.9491 807.2018 808.7915 810.241 812.0878 814.0817 816.6242 818.3926 820.337 822.0038 824.4287 827.9678 829.2407 829.9062 833.8126 832.605 834.7489 837.9149 841.666 844.9366 848.4848 852.2369 855.2958 857.1138 858.3688 859.452 860.7593 861.4604 863.3301 864.0998 864.6228 864.8657 865.5706 865.5864 865.8517 865.7752 865.4951 865.2553 865.9517 866.136 866.3967 865.9781 866.5052 868.0645 869.1863 869.8259 870.2867 871.0817 872.5076 874.0369 875.5773 877.8657 884.5103 890.6968 893.1471 895.3323 896.8847 902.3835 903.2045 904.095 905.2219 906.5137 907.192 907.1285 908.597 908.8648 909.3491 911.2759 911.5389 913.0494 913.7263 910.9454 909.7473 909.3983 912.7328 915.6384 915.75 915.0037 913.8107 914.3781 915.3726 915.4276 916.0512 916.7582 918.1624 919.579 920.515 922.1097 925.0456 927.3006 928.1178 929.3659 929.9374 930.4813 930.0192 930.4838 931.8069 934.4333 935.1136 937.109 937.8502 937.8777 938.9592 940.3283 941.049 941.6674 942.2848 941.8455 944.2439 946.0615 946.6872 948.6984 949.2852 951.0561 952.7052 955.3421 958.4764 960.9749 961.7586 962.3474 964.2621 966.4973 968.6139 971.1666 971.7989 972.8143 974.4606 975.7408 977.8161 980.5406 983.5662 985.7488 986.5441 986.5429 987.7359 989.3156 991.5106 993.4384 994.1755 995.8429 1002.297 1004.869 1006.505 1008.356 1009.989 1012.015 1014.333 1016.723 1019.052 1021.438 1024.315 1026.669 1028.77 1027.996 1027.277 1029.373 1033.064 1034.484 1038.711 1041.752 1044.473 1052.867 1057.532 1061.648 1064.427 1072.488 1078.805 1080.377 1085.973 1090.318 1094.925 1105.247 1110.658 1112.19 1115.185 1114.792 1115.015 1116.881 1116.93 1117.13 1118.19 1120.392 1120.353 1121.611 1120.361 1118.12 1119.237 1123.213 1126.566 1130.78 1135.432 1139.832 1144.629 1147.387 1150.723 1156.201 1162.084 1164.797 1167.339 1170.077 1173.653 1176.824 1179.928 1182.604 1185.603 1194.618 1201.453 1206.108 1211.234 1213.929 1213.389 1211.967 1212.703 1214.466 1220.643 1224.386 1234.676 1241.382 1247.608 1253.223 1257.983 1261.843 1263.821 1263.983 1264.702 1265.543 1266.535 1268.242 1270.631 1269.797 1269.159 1267.8 1265.556 1262.543 1259.55 1259.108 1254.202 1251.747 1249.18 1246.076 1245.241 1244.696 1244.604 1244.446
612.1412 612.8978 614.6613 616.723 617.7297 619.2085 621.4464 623.2698 625.5115 627.5817 629.9913 632.3059 634.5874 637.0784 640.5064 643.6465 647.0717 650.3857 652.6839 655.5121 659.0872 662.3815 663.7341 666.1614 668.1177 669.9738 672.3572 672.9001 674.0818 675.0508 676.241 678.3094 680.6462 681.7345 683.3359 684.886 685.1191 686.1227 687.845 689.3982 691.0179 691.6992 693.2056 694.2457 695.5857 697.2487 698.4692 699.1288 700.8215 701.3848 701.4341 702.6996 704.9774 706.8666 709.5208 712.4113 714.8294 716.9694 719.7311 721.7071 724.9274 727.5198 730.7711 734.0625 736.5583 740.8372 743.9174 748.6863 751.6257 753.9628 755.2103 757.5414 758.5853 760.8086 762.6062 766.0624 768.5961 770.2822 773.3001 775.3869 777.718 779.9301 782.264 784.9393 788.8143 792.0944 795.969 798.0147 800.6302 801.7517 803.7194 804.7048 806.7178 809.034 808.7471 810.882 812.1881 814.3683 816.4746 818.6085 821.2848 823.3419 825.3879 827.7269 830.4052 832.8277 837.172 838.1223 839.7266 840.7238 844.1866 845.4563 849.8192 854.7443 856.8936 858.3834 859.8866 862.0463 863.4952 864.692 865.2591 865.8651 866.4316 867.0399 867.6157 868.3267 868.8386 868.595 868.3416 868.3802 868.6362 869.5386 869.4943 869.4977 869.6337 869.859 870.8061 871.6462 872.4113 872.6615 873.4993 875.0106 876.2654 877.2996 880.2694 887.9285 891.2875 895.6842 897.5944 900.7057 903.3607 904.8519 905.614 909.086 909.8942 909.4056 910.5082 911.241 911.9826 912.1559 912.428 913.9969 914.6185 914.9513 913.3918 912.8209 912.7423 918.0282 918.7531 919.1506 918.291 915.8772 916.9194 918.2552 919.2784 919.0036 918.5365 920.2408 922.2891 922.7996 924.8469 927.7346 929.7768 930.94 931.9267 933.1246 933.5421 933.1407 933.1548 935.1187 939.1662 939.4158 939.7789 941.37 941.5103 941.7546 943.0915 944.5619 944.5829 944.7371 944.2125 945.6617 948.0005 951.8073 951.8979 953.3119 954.7885 957.35 958.9697 961.0624 963.636 964.097 965.741 967.5399 969.6044 972.6577 973.4448 974.2859 975.6957 976.8887 980.5844 983.2621 982.8385 983.3901 985.3196 988.6035 990.162 991.0183 992.1132 994.1501 997.032 998.2325 998.6732 1001.594 1004.932 1007.621 1010.305 1012.214 1014.225 1016.691 1018.998 1021.239 1023.671 1026.319 1029.029 1031.446 1031.739 1031.366 1032.291 1035.064 1037.96 1040.734 1047.042 1049.697 1057.899 1060.494 1063.721 1067.1 1072.68 1078.84 1084.607 1087.964 1094.382 1099.609 1108.945 1112.261 1115.095 1118.694 1119.021 1118.171 1119.163 1120.294 1121.918 1125.297 1126.578 1126.566 1128.88 1128.74 1125.255 1124.431 1126.093 1129.142 1132.129 1135.681 1139.774 1144.14 1147.939 1151.098 1157.355 1162.762 1165.966 1169.451 1172.668 1176.15 1180.447 1182.795 1184.853 1187.751 1192.984 1201.775 1207.9 1212.158 1215.187 1216.88 1217.089 1218.306 1219.081 1221.671 1226.795 1236.252 1241.85 1249.61 1255.221 1259.777 1264.451 1266.738 1268.341 1267.84 1268.549 1269.4 1270.818 1272.302 1272.543 1272.396 1270.667 1269.434 1267.559 1265.431 1261.909 1257.426 1256.326 1253.224 1249.811 1248.016 1247.318 1247.39 1246.717
612.1121 612.9216 615.3179 616.9701 617.6407 618.8715 621.7376 623.7295 626.0986 627.9672 630.8503 633.8463 636.2119 639.0031 641.7661 645.259 648.1349 651.1324 654.109 656.4636 660.0809 663.1024 664.3817 666.4164 668.0445 669.765 672.4567 673.4425 674.6913 675.6653 677.5917 679.668 681.1444 682.4528 683.554 684.789 685.4404 686.8245 688.7766 690.5175 691.7286 692.8815 693.798 695.5922 696.3398 698.8286 699.7938 700.8761 703.2466 703.8848 704.6038 704.1074 706.0414 709.5981 711.8152 713.7396 716.4183 718.7736 721.55 724.1332 727.0636 729.5624 732.605 737.4852 744.2397 745.9572 748.8479 751.2836 753.0847 755.6177 757.6582 759.2776 761.4961 761.9328 764.5381 766.3923 769.7766 772.9633 775.7608 777.2367 780.3372 782.2653 786.1879 789.4583 792.5306 796.8207 798.1964 800.7166 802.8196 804.5958 805.9573 806.8076 808.7648 811.0656 811.1874 812.686 814.4119 816.4563 818.3201 820.799 823.4973 825.9183 830.7383 830.9687 833.371 837.6278 840.2706 842.1849 845.2254 846.7695 848.3497 848.5672 851.4224 856.3785 859.9279 861.3496 863.3301 864.4992 865.8187 866.4678 867.0436 867.716 868.906 869.9459 870.7839 870.8678 871.0153 870.5587 870.2864 870.8691 871.472 872.5137 873.0075 872.7471 872.4633 872.4196 873.593 874.1788 874.8755 875.821 875.0815 877.4065 878.3725 879.0639 882.4058 888.9523 893.009 896.5627 899.7546 902.3258 904.3027 908.5978 912.3153 913.3054 912.5228 911.8008 912.3893 914.2078 913.61 915.0335 915.302 915.6199 917.0849 918.3975 917.6467 916.2806 917.1725 920.4391 921.3394 921.6 920.7896 919.1654 920.707 922.199 922.9158 922.5481 922.1749 923.1768 924.3896 926.3854 927.685 930.3423 932.3815 933.8986 934.6221 936.4651 936.5352 936.3707 935.0961 938.2111 940.6135 942.1018 943.4504 944.5241 945.3147 945.1177 945.56 947.9591 948.327 947.4841 946.8961 947.3384 949.7516 953.9666 954.9437 956.8945 959.4127 961.1724 963.1026 964.0293 965.4075 966.4565 969.1555 971.3553 972.9086 975.3234 976.741 977.7983 980.52 981.8484 983.9099 985.9713 986.809 988.3227 988.5756 988.4041 991.8965 994.2714 995.1844 997.2552 999.6486 1002.144 1002.743 1004.287 1005.854 1008.134 1012.085 1014.614 1016.2 1018.304 1020.982 1023.534 1026.219 1028.514 1031.11 1033.654 1035.539 1034.828 1035.282 1037.538 1039.597 1042.905 1046.579 1053.683 1059.496 1062.303 1065.454 1069.64 1076.57 1080.059 1084.601 1089.195 1098.283 1103.354 1109.158 1115.97 1118.352 1121.417 1122.187 1122.041 1122.15 1123.112 1125.418 1128.366 1130.155 1131.853 1133.749 1133.641 1133.949 1129.775 1129.259 1130.691 1133.277 1136.268 1141.356 1145.394 1149.445 1152.213 1156.177 1162.046 1166.233 1170.429 1174.324 1177.513 1180.937 1183.811 1187.058 1189.901 1194.476 1199.965 1206.91 1211.005 1215.569 1218.573 1220.379 1221.89 1222.638 1224.456 1228.857 1234.056 1244.027 1249.719 1255.971 1260.565 1264.971 1267.323 1270.145 1271.867 1271.956 1272.692 1273.24 1274.4 1274.92 1274.48 1273.715 1271.991 1269.817 1267.093 1264.869 1261.865 1259.202 1256.179 1253.353 1251.48 1250.811 1250.447 1249.49
612.8068 613.6479 616.1036 617.201 618.1567 619.8428 621.843 623.8147 626.5898 629.3817 631.9788 635.3035 637.9802 640.1027 642.8625 645.5179 649.577 652.1648 655.0079 657.0626 661.0038 663.9978 666.4448 667.7189 668.0708 670.7274 672.4158 673.8309 675.3569 676.6707 677.827 679.3371 681.2913 682.4091 684.4343 685.2639 686.8184 688.8912 689.6385 691.0653 691.9236 692.8375 694.6564 696.7725 699.197 700.7104 701.0201 701.8409 703.7704 704.8726 706.4688 707.28 708.1002 710.1918 713.129 715.4423 717.1359 720.3192 722.8808 725.8817 729.2371 731.6422 736.4423 744.1276 746.0566 748.1067 750.8002 753.1351 754.8241 756.8993 759.6696 760.9755 763.0557 765.3004 768.3248 770.4628 771.1248 774.0532 777.7462 780.1219 782.9177 786.1332 790.4647 792.9313 796.8722 799.2736 800.8183 803.2699 805.2465 807.3654 809.3204 810.5364 811.7556 812.179 813.5849 814.5694 816.5549 818.5558 820.9244 823.6076 826.1103 828.952 833.0406 835.2488 839.2538 842.1469 843.7006 847.5008 849.3682 850.7482 852.926 854.2963 857.0366 859.3079 863.0289 864.6396 865.4312 866.6201 867.4462 868.4739 869.5383 870.7704 871.5796 872.3494 873.1758 873.908 873.6255 872.9797 873.1458 873.8987 874.5652 875.4099 876.326 876.0634 875.4256 875.3759 877.118 877.2522 877.9545 878.5474 877.7326 878.8018 880.8275 881.1097 885.1264 890.4062 893.5864 897.6293 900.9227 904.3214 907.8334 911.86 915.581 915.1233 914.1307 914.4775 914.5901 916.4604 917.9637 918.08 919.0427 920.2084 920.6924 920.5829 920.512 921.407 921.4138 921.8305 923.8557 924.428 923.5516 923.7204 924.892 924.9517 925.7836 925.8506 924.8352 926.706 928.2821 929.5359 931.6588 933.4615 935.0626 936.1008 937.4647 938.6206 939.5293 939.2795 939.6243 940.9917 942.9545 945.5658 946.9878 947.9227 948.6048 948.9637 949.7472 950.6409 951.48 950.224 950.9236 951.8395 951.8963 955.3165 957.133 962.4644 964.6744 964.7946 966.3385 966.7198 967.9103 969.0166 971.5308 973.8123 975.1674 978.261 980.2114 981.3389 983.4295 985.94 986.7609 987.4643 988.8399 990.9518 991.9586 992.6843 993.1462 996.0839 998.1603 1000.293 1002.142 1004.536 1006.04 1007.619 1009.068 1010.136 1013.098 1015.721 1018.12 1020.2 1023.028 1026.174 1028.24 1030.855 1033.556 1036.514 1038.422 1038.821 1038.536 1040.421 1041.711 1044.538 1047.727 1056.297 1059.617 1064.537 1066.803 1070.991 1077.019 1083.404 1086.453 1090.76 1100.406 1105.222 1112.325 1119.995 1121.593 1123.369 1124.754 1126.018 1126.565 1127.443 1128.681 1131.949 1134.667 1135.795 1136.396 1137.296 1138.63 1135.168 1133.216 1133.168 1135.27 1138.295 1140.853 1146.853 1149.701 1154.539 1158.15 1162.551 1166.083 1170.225 1172.93 1173.715 1177.775 1181.193 1186.802 1190.047 1194.283 1200.976 1205.247 1211.943 1217.435 1220.449 1222.639 1225.028 1226.418 1228.234 1230.694 1235.272 1242.203 1250.166 1255.469 1261.697 1265.963 1270.11 1271.856 1273.346 1274.313 1275.833 1276.589 1277.442 1277.873 1277.749 1277.079 1276.255 1273.438 1269.935 1267.523 1264.877 1262.454 1260.51 1258.516 1256.468 1254.294 1253.862 1254.391
612.3105 613.2062 614.8526 616.4366 617.6776 619.8358 621.6501 623.1309 626.3502 629.2316 632.3838 635.1262 637.752 640.0231 642.7017 646.184 649.8715 652.7892 654.7132 657.6376 661.7766 664.0875 666.7982 668.2161 669.4277 671.6834 673.4662 674.0038 675.3782 677.152 678.6456 679.6578 681.7697 683.3026 685.2938 686.9922 688.5497 689.6084 691.1091 692.1404 693.2917 694.6417 696.0783 698.3369 699.8385 700.4663 700.8312 702.3937 703.795 705.6862 707.6136 709.4641 711.1207 711.5023 713.5835 717.0615 720.7518 722.5182 724.8505 727.2791 730.1403 734.7602 743.0149 745.7332 747.5317 750.0795 752.243 753.8605 756.0835 758.6306 761.0103 763.1891 765.9866 768.0201 770.3706 771.9026 774.1978 776.2366 779.4135 783.2758 785.4318 788.3173 792.6512 795.6854 798.9809 801.9589 803.8751 805.9129 809.0604 810.8166 811.8032 812.1309 813.5636 814.6018 815.994 816.3564 817.6271 820.6354 822.9837 825.6481 828.1804 831.1136 834.9538 838.7286 840.9302 845.3176 847.6671 849.3087 852.332 854.1345 855.4354 856.3993 860.8187 862.8556 864.9493 866.2833 867.6978 868.9299 869.6488 871.4564 872.6039 873.6206 874.0099 874.7939 875.6139 876.1617 876.0995 875.9457 876.2482 877.3057 877.4882 878.6653 879.309 879.6802 879.1121 878.9347 880.4049 880.9839 880.9028 881.6434 881.2119 881.1942 882.5681 883.7581 887.6614 891.2697 895.0679 898.7214 902.2167 907.6135 911.8334 915.5704 916.8262 915.6697 915.6544 915.98 917.1855 918.5745 919.4977 920.7474 922.5911 923.3281 923.884 923.1609 923.9601 924.8127 924.7314 925.9227 926.6522 926.645 926.7453 926.2797 926.898 927.963 928.5944 928.5452 929.072 930.3216 932.1718 933.6509 935.1577 936.975 937.7578 938.7126 940.5162 941.0032 942.1838 943.9248 944.7642 946.0178 946.7302 949.3599 949.9319 951.14 951.9305 952.8829 952.848 953.7387 954.5734 953.8313 953.7076 956.2482 954.305 956.8987 959.1631 962.8019 967.6038 967.9042 969.2031 970.7988 970.6036 972.0751 973.701 975.2859 977.0156 980.7029 983.9664 985.6796 986.5204 988.1238 989.086 990.0837 991.396 993.3127 994.822 995.9501 994.3756 997.3253 999.6245 1002.143 1004.836 1006.491 1008.417 1011.008 1013.043 1013.695 1014.539 1016.198 1019.471 1022.005 1025.345 1027.872 1030.287 1032.839 1036.18 1038.56 1041.07 1042.555 1042.766 1043.725 1044.575 1046.165 1050.977 1054.308 1059.207 1065.952 1069.288 1072.803 1077.369 1082.851 1087.353 1096.162 1103.324 1109.109 1114.662 1122.233 1124.227 1125.641 1128.19 1129.513 1131.135 1132.56 1134.527 1136.384 1138.338 1140.834 1141.941 1141.493 1142.663 1141.794 1139.047 1139.258 1139.065 1139.815 1142.712 1145.022 1148.586 1151.639 1154.833 1157.582 1161.395 1165.174 1167.491 1170.498 1175.188 1181.175 1185.842 1190.744 1194.738 1200.11 1206.78 1212.616 1217.847 1220.893 1225.224 1227.751 1229.77 1231.783 1234.019 1239.804 1243.877 1250.078 1255.631 1261.997 1265.974 1269.87 1272.26 1273.83 1275.67 1277.288 1278.636 1279.6 1280.438 1279.941 1279.095 1278.693 1275.988 1273.286 1271.018 1270.653 1268.551 1266.236 1263.238 1261.397 1260.312 1259.891 1261.366
612.183 613.2748 615.1194 616.4936 618.038 620.4763 622.0939 623.2471 626.146 629.7295 632.3874 636.124 637.52 640.2686 643.0363 646.3402 649.1218 652.3959 655.2917 657.9249 661.256 663.4251 665.3717 667.1928 669.679 672.3984 674.4288 675.5244 676.5774 676.8862 678.9206 680.5555 682.7933 684.3821 686.3108 688.3902 690.1083 691.4094 692.5537 693.6533 694.615 696.1605 697.5919 699.6378 700.6609 701.0282 702.4695 704.0101 704.5961 706.6135 708.9719 711.1848 713.1648 714.8708 716.1141 718.1761 721.842 724.7907 728.1478 728.6162 732.1387 741.1174 744.5316 746.1782 748.3232 750.8564 753.1396 755.278 757.3947 760.5964 763.2298 765.5867 768.5849 771.2077 772.4448 775.3609 776.9678 779.1856 781.8868 783.9468 788.6279 792.5942 795.0328 797.8485 801.3038 805.53 806.9281 808.4741 812.7572 813.4358 813.84 814.5484 815.304 817.0836 818.2974 818.8491 820.3749 821.8179 824.82 827.0165 829.2795 832.7389 838.8223 840.8936 843.8752 847.1483 849.283 851.865 854.3565 856.1631 857.2156 858.5696 862.3395 864.8749 867.287 868.9418 870.1255 871.6315 872.2943 873.626 874.6885 875.8226 876.3906 876.8037 877.4214 878.0099 878.1792 878.5472 878.9263 879.3181 881.1312 882.1011 882.2739 882.0129 881.9879 882.37 883.6459 884.7985 885.1453 885.4518 885.424 884.278 884.5469 886.152 889.3307 892.2654 895.6866 900.4813 904.9719 911.9244 915.451 918.0997 917.6816 916.879 916.7244 917.3753 918.6472 920.6447 923.1415 924.8016 925.5709 925.7444 926.3921 926.5928 926.1562 927.3719 928.8676 928.1284 928.8008 928.5656 928.8357 928.1377 929.0388 930.1887 930.8575 931.2838 932.634 933.9093 935.4236 936.9474 937.9136 940.2073 941.0016 942.9481 943.7815 944.2799 944.7053 946.8805 948.7913 948.41 950.7574 952.7476 953.324 954.9923 955.8623 956.3214 956.4112 956.5548 957.7278 957.1297 957.2797 958.6101 957.3615 958.3501 960.0043 963.8417 968.6178 970.8855 972.1134 973.3699 973.9025 975.715 977.2259 978.2614 979.6656 981.9897 984.8261 987.1132 988.6299 989.6421 991.4191 992.8773 994.2415 995.5427 997.548 997.735 999.2832 998.5236 1000.72 1003.773 1006.641 1008.565 1010.875 1013.511 1016.086 1017.564 1017.874 1018.175 1020.598 1023.32 1026.301 1029.287 1032.314 1035.151 1037.506 1040.56 1043.349 1045.589 1046.821 1047.444 1047.662 1049.323 1053.17 1056.194 1061.773 1067.073 1070.981 1074.216 1077.868 1082.547 1088.642 1098.279 1106.895 1113.229 1116.024 1124.487 1126.431 1128.769 1130.409 1134.333 1137.609 1137.771 1138.198 1140.33 1141.235 1145.777 1147.929 1146.237 1147.453 1146.862 1144.47 1144.82 1145.001 1143.05 1143.402 1146.864 1149.658 1152.097 1155.343 1157.408 1160.854 1163.816 1168.533 1172.538 1176.912 1180.262 1185.719 1190.94 1196.028 1200.678 1205.184 1211.321 1217.439 1222.37 1227.165 1229.695 1232.415 1234.716 1237.058 1240.259 1244.524 1249.172 1254.266 1260.551 1265.515 1269.548 1271.96 1274.296 1276.656 1278.898 1280.267 1281.527 1282.592 1282.725 1281.983 1280.323 1278.399 1276.483 1275.512 1275.77 1272.743 1270.279 1267.443 1267.055 1265.016 1265.161 1267.12
612.9651 614.3046 615.4877 616.7432 618.6552 620.5358 622.47 623.8539 626.2274 629.9291 632.7722 636.3129 637.4538 640.2947 642.8657 645.6465 648.6255 652.9258 655.139 657.5609 660.7543 662.5949 664.2571 666.6947 669.1055 671.3381 673.8411 675.729 677.7187 678.3298 679.2219 680.3702 683.0563 685.9338 687.3926 689.5106 690.9051 692.4359 693.5856 694.7504 696.3153 697.6056 699.1071 699.4214 701.0958 702.4249 703.2129 705.1153 706.1296 708.2794 710.1782 712.1091 714.155 716.5969 719.3142 722.2886 722.7891 725.7845 727.9976 731.9161 737.7727 743.2609 745.1489 746.7706 748.2751 751.2339 753.6149 756.352 758.9149 763.2111 766.2434 768.694 771.3625 773.5132 776.6357 778.3589 781.6119 781.9627 784.8 788.4373 794.3773 796.164 797.8582 801.0365 805.4571 807.7789 809.7115 811.6999 814.3037 815.5282 816.7767 816.7637 818.0618 818.9247 819.6683 819.8376 822.069 823.1097 825.3199 828.0106 830.8452 833.9374 840.6332 843.4332 846.357 849.0448 851.6108 853.8637 856.5877 858.2667 860.8884 862.3416 864.6133 867.106 869.4158 871.5444 873.2552 874.0988 874.5851 875.4951 876.3245 877.2028 877.8159 878.445 878.7899 879.6788 879.8748 880.834 880.9573 881.5894 883.251 884.8533 884.4988 884.2703 884.7885 886.7439 889.0584 890.4678 893.4442 889.921 892.7486 892.8066 889.3948 890.658 889.75 893.6518 898.5523 903.1081 908.0214 915.5587 918.3877 918.3325 918.3279 917.6611 917.7884 918.6245 919.9236 923.0203 925.8772 926.8617 927.4949 927.9377 928.4933 929.079 928.8221 930.1546 929.9945 930.304 931.3472 930.9075 931.3239 930.5382 930.7268 932.3442 933.5832 934.3703 936.0547 937.1086 938.4573 940.1974 941.236 943.4398 945.3709 946.1772 947.5889 948.145 949.0258 951.6905 951.9835 952.9584 954.1461 955.5115 956.7288 958.1644 959.2198 959.4579 959.7302 959.8093 960.8757 960.265 959.9809 961.242 961.3777 961.1279 960.7689 965.0144 970.2883 972.5815 974.2679 978.0886 978.0677 979.5218 981.2911 981.8896 982.8304 984.8531 986.7706 989.3895 991.2611 992.2898 993.496 995.4009 996.2108 997.5406 999.9722 1001.117 1002.048 1002.676 1003.494 1005.045 1008.555 1010.665 1012.879 1014.882 1017.768 1020.535 1021.659 1021.784 1022.099 1024.321 1026.484 1030.73 1034.289 1037.52 1039.593 1043.007 1045.643 1048.041 1050.152 1051.514 1051.281 1051.29 1055.85 1058.6 1063.54 1068.55 1072.835 1075.908 1078.709 1083.129 1089.149 1099.842 1108.916 1115.921 1118.638 1124.49 1127.555 1129.646 1132.709 1137.195 1141.392 1142.218 1142.504 1143.493 1148.495 1149.656 1152.603 1151.01 1150.944 1151.327 1150.417 1150.037 1149.877 1147.343 1147.634 1149.011 1150.682 1153.775 1157.612 1160.899 1163.193 1166.361 1169.184 1176.031 1181.048 1183.162 1188.119 1192.689 1197.061 1200.833 1204.711 1210.42 1216.093 1221.652 1226.183 1229.023 1233.403 1235.977 1238.901 1241.515 1246.309 1250.979 1254.906 1259.727 1266.246 1270.679 1272.328 1274.725 1277.058 1279.607 1281.481 1282.907 1284.069 1284.984 1284.722 1282.767 1281.212 1280.939 1281.246 1279.452 1277.955 1274.826 1273.949 1271.687 1270.515 1270.628 1272.293
612.815 614.3823 616.5261 618.1448 619.7202 622.0591 623.4122 624.7201 626.3909 630.6642 633.1044 636.4976 638.3762 641.8239 643.7814 646.7088 649.5612 652.925 655.388 658.1941 661.0052 662.5682 664.7042 667.6342 670.3859 672.2094 673.8623 676.2423 678.5735 680.2416 680.7609 681.8008 683.6854 686.4312 688.8636 690.4164 692.0658 693.1548 694.1544 695.2773 697.0142 698.5852 699.7022 700.9247 702.4255 703.3466 704.4325 706.6808 707.7063 710.137 711.9349 713.5432 716.0859 718.0177 721.0735 723.7897 726.3562 726.9852 730.7922 733.5596 737.6724 743.6193 745.2063 747.603 749.3494 751.6542 754.7499 757.3655 759.6637 764.9625 767.3424 770.9015 773.7626 777.1953 779.1539 782.1254 784.2276 786.1243 791.6724 794.2017 796.2495 798.193 800.0485 804.5085 808.1657 810.2153 812.8852 814.5943 815.5007 817.1559 819.0592 819.9608 820.2005 820.7367 821.3425 822.0304 823.7421 825.4786 826.7974 829.1683 832.2739 835.0726 841.1784 843.7797 846.8174 849.4577 852.571 856.1025 858.5069 860.3302 861.6707 863.7859 866.3622 868.8533 871.1146 873.6069 875.049 875.8436 876.489 877.2877 877.793 878.6461 879.6982 879.9134 880.1096 880.9997 881.7517 882.6408 883.4778 884.4108 885.9279 887.4973 886.9687 886.6134 889.6103 893.7369 893.1409 894.774 896.1477 895.8519 895.3699 895.702 895.245 895.6003 895.1702 894.8508 899.9551 903.7324 907.8901 915.3892 918.4579 918.4246 919.7421 919.7882 919.4554 920.2767 922.2735 925.6011 927.8519 929.2482 930.1093 930.6783 931.1567 931.9694 932.6636 932.4165 931.7294 932.5558 932.9117 932.8984 932.7173 933.0511 932.4611 934.6709 935.6078 936.9833 939.1589 940.6514 941.4519 943.1958 945.7089 947.3171 948.5362 950.454 951.7812 952.7084 952.8638 954.0193 955.6929 956.9544 958.5742 959.113 961.6624 962.7068 962.8102 963.0292 962.9023 962.5194 963.8494 963.3891 963.0394 963.8942 964.6422 965.1266 965.3881 965.1209 968.3477 971.201 975.4092 979.5635 980.6814 982.3685 985.6342 985.6852 986.3588 988.411 989.6674 992.2924 993.8292 995.036 996.0729 997.1143 998.2585 999.3066 1001.328 1003.208 1003.821 1005.585 1006.49 1009.016 1009.686 1013.101 1015.396 1017.086 1019.416 1021.922 1024.539 1025.871 1025.787 1026.793 1029.949 1032.125 1035.64 1039.072 1041.903 1044.331 1047.254 1050.433 1053.136 1055.358 1055.103 1054.343 1057.964 1060.909 1065.94 1069.533 1075.436 1078.779 1081.696 1085.803 1088.904 1101.304 1110.108 1115.798 1120.755 1122.535 1128.363 1130.782 1136.467 1139.06 1141.862 1144.056 1146.296 1149.994 1151.308 1154.904 1156.566 1155.709 1154.055 1155.804 1154.034 1156.227 1155.242 1154.194 1152.497 1153.094 1153.045 1155.708 1160.797 1164.569 1167.161 1169.998 1172.76 1177.149 1183.82 1186.994 1190.252 1192.974 1197.033 1201.388 1205.183 1209.877 1215.063 1220.705 1224.851 1228.398 1231.772 1235.334 1238.967 1242.61 1246.433 1251.112 1256.549 1260.147 1266.763 1270.799 1272.747 1274.409 1276.48 1279.456 1281.626 1283.376 1284.721 1286.239 1286.084 1285.33 1285.712 1284.98 1285.467 1286.534 1284.922 1282.198 1280.685 1279.377 1277.326 1277.082 1277.556
612.5782 614.2463 616.4408 618.3173 620.0776 621.9883 623.3773 624.9047 627.8846 631.3525 634.0417 636.7885 640.1387 643.0479 644.6873 647.5643 649.8547 652.8093 656.8296 659.7903 661.8312 663.9666 666.348 668.7489 670.8342 672.5139 673.8835 676.3228 678.9704 679.606 681.5358 682.7075 684.5423 687.7763 689.7274 691.5389 692.8555 693.8961 695.7369 697.0686 698.1739 699.787 701.5892 703.4065 705.1666 704.803 706.2821 707.88 709.6548 710.753 713.5766 715.01 717.0419 719.3458 721.7883 725.1304 728.2579 731.3585 734.0675 736.3262 739.7429 743.5349 745.6362 747.8608 750.3821 753.2149 757.2703 759.2603 762.4006 766.5235 769.4276 773.749 776.4981 780.1343 782.8415 785.3692 787.434 789.3405 793.9534 796.6946 797.0948 802.189 805.4902 808.6035 811.3015 813.1157 815.2933 816.3611 817.089 818.6323 820.8102 822.0672 823.0314 823.2286 823.1887 824.5869 825.5866 826.8506 828.358 830.8321 833.4385 836.1004 839.8962 843.2775 846.2828 849.7283 853.3918 857.1904 859.5704 861.8137 864.7697 865.8204 870.8197 871.6438 874.3253 876.0125 876.8439 877.7027 878.6095 878.949 879.4468 880.2922 880.8406 881.7074 881.8905 882.3015 882.4784 883.5499 885.0379 887.2202 888.8228 889.7933 889.9878 889.9265 892.7678 898.2955 897.8364 899.5919 899.9688 899.4621 899.0704 898.9853 899.3253 899.9562 899.3007 899.038 901.0009 904.5471 908.6481 912.7479 916.7314 918.9598 920.8354 921.8336 922.3103 923.5353 926.0568 928.8188 930.533 932.4178 933.3361 933.6071 934.5709 934.1505 934.4294 934.1672 935.2368 934.3122 934.2741 933.8002 934.3632 935.0402 935.1334 936.733 938.6203 939.8339 941.8645 943.9113 945.3315 947.2004 949.0007 950.7203 952.646 954.5933 955.1819 955.6619 956.4164 957.0895 960.0081 961.4385 961.4308 962.0696 964.3727 967.9746 967.8945 967.285 967.4486 966.012 967.3058 966.6239 965.4581 966.3349 967.3747 968.7943 970.1729 969.7021 969.6752 971.1642 974.6185 978.4496 983.7075 985.0792 987.6225 990.3843 990.646 991.8097 993.3116 994.8928 996.5042 997.2467 998.0011 999.1119 1000.461 1001.889 1002.584 1005.201 1005.689 1007.373 1009.961 1011.684 1011.989 1014.112 1017.525 1019.219 1021.159 1024.78 1027.15 1028.951 1029.74 1031.013 1031.89 1033.251 1036.512 1039.66 1043.089 1046.079 1048.986 1052.277 1055.267 1058.232 1059.037 1057.669 1060.403 1063.533 1070.252 1071.822 1077.77 1082.441 1084.864 1088.751 1092.816 1104.195 1109.573 1112.871 1116.29 1121.999 1127.52 1132.41 1136.713 1143.009 1145.351 1147.901 1149.336 1151.328 1154.038 1157.626 1160.267 1160.896 1160.205 1159.235 1159.822 1161.187 1159.985 1159.41 1158.452 1157.923 1156.856 1156.513 1162.338 1167.916 1170.244 1173.418 1176.101 1179.144 1184.558 1189.931 1193.225 1195.643 1197.637 1201.686 1205.11 1210.944 1214.838 1220.286 1224.279 1227.402 1230.447 1233.836 1237.599 1241.802 1244.922 1249.745 1258.316 1260.974 1266.165 1269.262 1271.875 1274.045 1276.195 1278.723 1281.262 1283.48 1284.818 1286.658 1288.313 1288.23 1289.249 1289.514 1289.893 1290.15 1289.733 1287.574 1285.934 1285.417 1283.775 1282.404 1282.735
612.7523 614.2768 616.429 618.9672 620.4938 621.4606 622.6089 624.8864 628.5851 631.9124 634.79 637.2231 639.7568 643.0552 645.3816 647.1639 650.0051 653.2529 657.1934 660.3412 662.746 665.436 667.5474 669.4976 670.6464 672.3746 673.9433 676.1099 678.6048 681.54 683.686 685.033 687.3025 689.4319 690.3494 692.4094 694.1264 695.6552 696.5461 698.163 699.873 701.8897 703.8652 704.6564 705.5328 705.9855 706.6375 709.8382 711.4213 711.9566 715.5378 716.7443 719.5099 722.2445 724.1534 727.4457 731.3802 733.6541 736.9991 738.2783 741.4834 745.2727 747.9 750.3757 753.0474 756.4951 759.9526 761.5057 766.1063 769.2677 771.2711 775.7612 779.3964 782.4639 785.3663 789.3156 790.9003 792.52 795.8655 799.3546 802.2588 803.1445 806.2324 810.1456 813.6849 815.7144 817.5545 818.6664 819.3322 820.3772 822.1753 824.4786 825.4241 825.0162 825.1885 826.1444 826.6751 827.787 829.7971 832.8273 834.4464 836.538 839.029 842.3609 845.6924 849.0128 853.0815 856.8672 859.626 866.2524 868.3022 870.7646 874.1134 874.5348 876.5554 878.0555 878.9102 879.6392 880.0945 880.5399 880.9031 881.9187 882.7798 883.9732 884.1738 884.6716 884.2299 884.1389 886.8178 888.7383 890.7138 892.0711 892.5328 893.5069 898.7192 900.7831 903.6151 903.5708 903.6694 902.7427 902.5236 902.7873 903.0251 903.1401 903.6879 902.2563 902.433 905.4904 909.2316 913.9595 917.0756 920.1969 922.4211 923.9705 925.1406 926.1829 928.2138 933.0768 933.322 936.3385 936.4256 936.1613 936.7059 936.2573 936.0352 936.2901 936.2905 936.2161 936.1166 935.4892 937.7166 937.8352 937.9196 939.6217 941.4467 942.5864 944.3253 946.5176 949.3228 950.6471 952.7819 954.9823 956.8839 957.8541 958.7988 959.6122 960.813 961.8938 964.4891 964.8152 966.4584 968.3263 967.2027 969.904 971.1827 971.928 970.4234 969.9744 970.319 970.1317 969.2324 969.0348 970.2869 972.2789 974.0124 974.3782 973.7543 974.5627 976.8911 979.8188 984.4692 987.7453 990.2666 993.1766 995.0172 996.7351 997.4425 998.2457 999.5045 1000.017 1000.867 1001.79 1002.898 1004.98 1005.478 1007.901 1008.515 1009.308 1012.117 1014.667 1014.836 1015.419 1017.374 1020.361 1023.068 1025.769 1028.738 1030.533 1032.359 1034.359 1035.685 1036.65 1037.24 1040.272 1044.075 1047.616 1050.61 1054.018 1057.089 1060.222 1062.218 1061.262 1062.739 1067.187 1073.107 1077.329 1078.868 1083.895 1086.997 1090.606 1094.952 1098.233 1108.84 1113.814 1120.534 1123.926 1127.574 1131.872 1139.98 1142.297 1147.573 1150.921 1152.802 1157.038 1158.503 1164.878 1165.463 1164.504 1166.217 1165.126 1164.028 1164.804 1164.294 1162.696 1163.049 1162.13 1161.166 1162.145 1161.82 1166.955 1171.852 1175.552 1178.527 1182.103 1187.399 1191.12 1196.094 1198.044 1199.758 1201.855 1205.062 1210.097 1213.134 1216.004 1220.437 1225.26 1230.225 1233.203 1236.381 1239.308 1243.094 1247.721 1252.411 1257.125 1261.995 1266.91 1269.789 1272.596 1275.44 1278.551 1281.239 1283.523 1285.251 1287.283 1290.299 1290.705 1291.47 1292.309 1293.63 1294.846 1295.079 1294.48 1292.83 1291.16 1289.651 1287.418 1286.887
612.4313 614.7094 616.9802 618.9103 619.8318 621.3085 623.618 625.6857 628.6909 632.415 634.8799 637.288 640.1608 642.9739 646.0179 647.7164 650.9806 654.2428 657.1359 660.2629 664.1281 666.0695 667.8884 670.1668 671.4922 673.301 675.1749 676.6968 680.6074 682.7715 684.1068 686.34 688.5466 690.3414 690.8915 691.8473 694.492 695.9832 697.3486 699.7311 700.9562 701.9001 703.0897 704.0078 705.2982 708.2232 707.3314 709.5275 712.0905 714.1055 716.0215 719.2435 721.9874 725.2155 727.0523 733.2291 736.319 739.2341 741.8253 744.0177 744.8557 748.1049 749.7855 754.031 757.3996 760.5547 763.89 766.1721 768.3251 771.4089 772.1345 777.2142 780.2024 783.8306 788.4796 791.4452 793.7861 797.0858 800.887 803.6503 805.8946 807.1791 807.6229 810.8782 816.8416 818.8497 819.5807 820.6561 821.387 822.2949 823.56 825.161 826.7032 826.5548 827.3732 827.86 827.7354 830.0977 832.7944 833.9872 836.0212 837.6904 839.6758 843.2484 845.774 849.29 853.3065 856.7151 864.8997 870.2837 873.706 873.4224 876.715 876.6671 878.3968 879.8547 880.8156 881.1085 881.6804 881.767 882.9604 883.3445 884.5402 885.6401 885.416 885.5106 885.6234 886.7057 888.6331 891.0097 892.0817 893.3054 895.1603 896.0649 902.9088 903.5802 906.4467 907.4744 907.0255 906.7849 905.9985 906.0283 906.1089 907.6013 908.5626 909.1787 907.6626 906.2844 910.8731 915.7154 917.9783 921.5643 924.0871 925.8192 926.5594 928.45 931.0821 935.629 936.9532 939.1996 938.168 938.0848 937.9938 938.8987 938.804 939.0529 938.7675 937.9509 938.9875 941.726 941.6456 941.5158 941.7928 942.7567 944.1022 945.5126 947.5836 949.6493 952.1255 955.2373 957.4911 960.1697 960.8942 962.2731 962.646 963.7919 964.9556 966.0283 967.03 968.6393 970.5211 972.822 971.1948 973.386 973.5281 974.2557 972.8386 972.5792 973.0184 972.9237 972.7327 972.4852 973.6519 975.2051 976.6294 978.2518 979.6713 979.5771 980.1719 982.2581 986.2996 989.9387 994.4075 995.1515 997.3371 999.8629 1000.731 1001.863 1002.514 1003.782 1004.224 1005.851 1007.338 1006.814 1008.475 1009.143 1011.993 1011.774 1013.464 1016.302 1017.853 1018.587 1018.941 1021.421 1023.54 1027.05 1029.704 1032.78 1035.483 1037.216 1038.611 1039.807 1041.042 1041.178 1045.545 1048.322 1051.602 1054.966 1058.582 1061.789 1064.878 1064.76 1064.361 1071.449 1076.031 1079.462 1081.456 1085.449 1089.29 1093.443 1098.861 1102.529 1109.709 1118.036 1122.121 1126.913 1130.788 1134.756 1139.998 1148.118 1151.241 1153.139 1155.231 1159.398 1164.019 1166.732 1169.3 1167.946 1168.169 1168.026 1167.496 1168.561 1167.493 1165.967 1166.684 1166.866 1167.461 1166.974 1165.464 1166.834 1170.29 1175.776 1180.114 1183.218 1189.697 1193.589 1197.309 1201.27 1203.011 1203.908 1206.172 1208.931 1212.767 1216.136 1222.649 1228.139 1230.767 1233.945 1237.444 1240.601 1245.384 1249.888 1251.873 1258.475 1263.038 1266.051 1267.225 1271.337 1274.766 1278.279 1281.379 1284.641 1286.831 1289.476 1291.025 1292.653 1293.588 1294.646 1295.992 1298.72 1298.865 1299.314 1298.592 1296.702 1293.979 1291.334 1290.786
612.7216 614.7625 617.1495 618.1305 619.2029 620.817 623.2493 625.7524 628.6644 632.6819 634.8141 637.3377 640.1174 643.5887 646.4715 648.319 651.6153 654.3229 657.4415 660.4463 663.3631 665.6651 668.1486 670.6228 672.7357 675.2823 677.6 678.5917 681.0695 683.7714 685.5065 687.6562 690.027 691.0468 691.6855 692.5312 694.0959 696.1401 696.3611 697.8427 699.4596 701.0328 702.5757 704.348 704.7526 706.8063 708.6339 710.8331 712.4392 714.7859 717.8817 721.0156 723.7922 726.4301 729.2407 732.4762 738.3527 741.6456 744.2679 746.186 747.8922 749.9225 753.4056 755.9007 759.8108 763.7212 765.7668 768.7433 771.4731 772.2759 775.5659 778.2073 783.31 786.5447 790.2881 792.39 797.8403 801.3068 804.5195 805.9854 808.1506 811.3729 811.1877 813.8077 818.3058 822.1165 823.66 823.9162 823.5382 824.2493 824.5957 826.4246 828.2685 828.8267 829.4923 829.298 829.7217 831.0846 833.5643 836.2608 837.4707 839.5668 840.4882 843.2953 846.5348 850.1982 854.2666 857.8563 867.7225 873.2424 875.5334 876.3024 878.6088 878.7471 879.5537 881.5074 882.4694 883.2441 883.1938 883.9948 884.0161 884.9193 886.2643 886.704 887.0104 887.4269 887.556 889.858 892.2549 892.0995 893.3422 895.4601 895.9822 899.7629 904.775 905.9985 908.6942 910.4615 910.5206 909.9194 909.1677 909.4338 909.8967 911.5596 911.8053 912.6108 912.8329 912.138 912.6221 916.1794 919.0709 922.7133 925.8839 927.4019 927.8068 930.5497 933.4252 937.6407 940.0281 940.9031 940.8671 940.3118 940.7093 940.7757 940.6387 940.1597 940.6315 940.9235 942.4893 943.788 943.9573 945.6411 945.8514 945.997 946.616 948.7358 950.4 952.5702 955.7098 958.6774 961.312 963.2232 964.2132 965.2266 966.428 968.1072 970.3657 970.0848 971.1 973.9566 976.4523 976.34 977.3845 978.4908 978.4782 977.3618 976.5538 975.6658 975.9548 975.872 976.0563 975.8823 977.2359 978.6232 979.7407 981.5759 983.6261 984.1352 984.5507 986.2419 987.9033 991.2216 994.997 997.9478 1000.007 1002.591 1004.05 1004.665 1005.89 1006.488 1007.224 1009.609 1010.798 1011.435 1012.347 1012.063 1014.845 1015.927 1015.962 1019.202 1020.343 1022.076 1022.597 1023.962 1026.314 1027.883 1030.961 1034.435 1037.96 1040.097 1042.234 1043.665 1043.845 1043.887 1045.756 1048.948 1051.842 1055.45 1058.897 1062.58 1066.415 1067.772 1067.52 1074.074 1079.317 1080.829 1083.315 1085.447 1089.841 1096.642 1104.034 1107.837 1114.739 1121.089 1125.88 1131.272 1135.385 1136.183 1141.498 1146.111 1151.549 1154.795 1157.627 1160.9 1165.108 1167.976 1169.854 1170.754 1171.31 1170.864 1171.249 1170.982 1171.27 1170.985 1170.459 1170.164 1170.909 1171.211 1170.044 1169.982 1171.91 1174.46 1180.624 1183.966 1188.938 1193.809 1198.758 1203.813 1206.552 1208.48 1208.859 1210.702 1213.721 1217.431 1220.81 1224.475 1228.103 1231.321 1235.023 1239.312 1243.035 1249.572 1253.043 1258.853 1263.455 1266.065 1269.4 1273.889 1276.855 1279.56 1281.915 1284.73 1288.161 1290.303 1292.407 1294.311 1296.299 1297.138 1298.849 1302.157 1303.574 1303.858 1302.836 1299.125 1296.137 1294.674 1293.746
612.8223 614.3586 616.532 617.7972 619.5605 621.5941 623.6602 626.4374 629.4119 632.412 635.3923 637.7701 640.66 643.6224 646.5987 648.9162 652.04 654.8774 658.5724 661.4777 664.2328 668.3629 671.2978 673.0053 676.307 678.3141 679.0206 679.8153 681.8893 684.6375 686.3801 688.7673 690.836 693.1884 693.6807 694.7272 695.3486 696.3599 697.2336 698.2614 699.8748 701.4286 703.27 704.5831 706.395 708.3171 709.5521 711.905 713.5955 716.1509 718.5027 721.9674 724.9048 727.6558 730.7906 734.1263 740.9437 743.6206 746.0024 748.5118 750.3334 753.0013 755.8679 758.8669 761.8284 765.6223 767.5765 771.1334 772.7408 774.9123 778.0549 780.0171 783.7918 787.3787 791.9633 796.9021 800.3166 803.9902 806.6171 809.1512 810.753 814.4946 814.6087 817.3953 821.8246 824.0554 825.2919 825.9898 826.6307 826.3588 826.6282 827.635 829.84 831.0298 832.2822 831.5814 832.1793 832.5322 834.3128 836.645 839.1935 840.8552 842.4727 844.5127 847.2399 850.449 855.3571 859.6162 871.6062 876.0938 877.3828 879.0432 880.1665 880.7628 881.5721 882.4393 883.7756 884.6122 884.7224 886.1833 886.3672 886.4395 887.405 887.9954 888.8017 889.4739 889.769 892.084 894.5 895.1211 896.0511 898.4505 900.3104 903.1124 906.4723 908.4653 911.73 912.451 913.4488 914.0385 916.4333 914.0994 914.4203 914.8481 915.6035 916.6184 918.241 917.3378 914.8457 917.9156 920.2014 923.092 926.8022 928.9236 930.27 932.9729 936.4931 941.0186 942.3737 942.6725 942.6141 942.7062 942.3905 942.3214 942.0554 942.1306 943.366 945.278 945.525 946.0176 946.5604 947.6343 948.6057 949.5817 949.7216 950.8145 952.9377 956.6965 958.878 962.9669 964.5873 965.8863 969.1028 971.8347 971.2664 972.6376 973.5924 974.4149 975.9718 977.5556 979.1457 979.2595 979.9481 980.1878 982.1638 981.0865 979.9038 979.2533 979.5029 978.9592 979.1599 979.6453 980.5524 981.6158 983.2736 985.4093 986.718 988.041 989.6545 993.6115 992.9025 996.5242 999.9981 998.7036 999.7888 1004.863 1007.096 1008.024 1009.145 1011.037 1012.837 1013.587 1012.833 1014.81 1014.705 1014.916 1018.125 1019.754 1019.187 1021.575 1024.027 1026.027 1025.348 1025.646 1029.162 1030.909 1033.21 1036.024 1039.346 1042.028 1045.002 1046.58 1047.47 1047.114 1048.569 1049.986 1052.508 1054.884 1058.313 1062.461 1065.94 1069.983 1070.872 1074.751 1080.823 1083.329 1085.549 1087.231 1095.619 1100.079 1107.929 1111.959 1119.561 1122.961 1129.504 1134.912 1138.685 1139.689 1141.966 1147.338 1152.496 1155.841 1158.205 1161.84 1165.423 1168.018 1170.755 1172.959 1174.192 1174.661 1174.545 1174.329 1175.703 1175.625 1175.194 1175.253 1175.229 1176.588 1175.777 1174.305 1176.9 1177.817 1180.254 1184.805 1188.844 1193.171 1199.261 1204.159 1208.965 1211.999 1213.097 1214.922 1217.403 1218.749 1220.958 1224.011 1227.091 1230.344 1234.57 1238.252 1242.644 1246.345 1251.711 1256.077 1261.197 1265.706 1271.249 1275.011 1276.947 1281.059 1282.977 1286.083 1288.232 1291.532 1294.146 1295.833 1297.537 1299.21 1301.455 1303.78 1305.76 1307.525 1305.824 1302.75 1300.773 1298.519 1296.826
613.0894 614.3982 616.1224 617.7463 620.986 622.996 624.2209 627.1654 629.3568 632.9068 636.0483 638.4896 640.8024 643.4562 647.2596 649.6129 651.9494 655.7592 658.9524 662.0348 665.2731 667.7524 673.699 675.3307 677.5212 678.6577 679.4455 680.4597 683.1617 685.4869 687.0706 689.2703 691.3593 693.3513 694.3752 695.9268 697.0405 697.371 698.6498 699.3793 700.8912 702.4534 704.0303 705.8822 707.8271 709.4694 711.5064 713.1578 715.1498 717.5275 720.3082 723.0875 725.6301 729.0133 731.8989 737.8417 742.16 745.2053 747.6183 749.6437 752.1182 755.3176 758.4713 762.1339 764.326 766.8744 769.3706 772.4971 774.8644 778.4708 781.0802 788.7985 791.2908 791.4744 796.8804 799.993 804.1155 806.8376 809.8542 813.0878 815.7158 817.8334 819.2067 820.4096 822.7036 825.5545 826.5145 827.6913 828.3867 828.3523 828.7023 829.032 830.8369 833.9724 835.3079 835.1918 834.062 834.7438 835.8307 837.8743 840.6585 842.796 844.9069 847.2848 849.3157 851.7124 856.0757 861.5769 867.0168 877.762 879.5959 880.7319 881.8358 882.0286 883.0843 884.2156 884.9846 885.9709 886.5668 886.9271 887.4802 887.9177 889.4297 890.0437 891.8782 892.1446 892.4608 895.0049 897.2464 897.7365 900.5411 901.4047 903.2629 905.4311 907.6273 910.5368 913.4082 915.2672 916.9016 918.5361 919.3808 918.1262 918.4233 918.3011 921.4426 922.7527 922.0582 921.1422 919.3298 919.3897 921.9236 924.2314 926.959 931.0867 932.993 934.9965 939.3841 943.3417 945.1474 944.8777 944.5752 945.0018 944.2605 944.5786 943.4901 944.3091 945.9642 947.1505 947.6885 948.3198 949.1683 950.3739 951.0615 952.6661 953.0201 954.1229 955.6098 958.743 961.8816 965.9053 967.3987 969.2199 975.8126 976.7705 976.7307 976.4448 977.3835 979.3671 979.6047 980.4978 981.8959 982.9128 983.3882 984.3436 984.86 984.3153 983.0466 982.6012 982.5469 982.9225 982.8334 983.0129 983.835 985.1624 987.3006 988.9863 990.7204 991.2662 992.9652 995.4675 997.6923 999.1254 1002.901 1002.667 1002.958 1005.917 1009.392 1011.308 1012.697 1016.262 1018.074 1017.103 1015.941 1016.352 1017.597 1018.539 1019.939 1022.526 1023.852 1022.683 1025.757 1028.431 1028.602 1028.85 1030.81 1035.776 1036.325 1038.865 1041.345 1044.738 1046.908 1048.658 1050.28 1051.151 1051.871 1052.233 1054.766 1057.162 1059.654 1063.602 1066.241 1069.258 1072.507 1076.548 1083.074 1086.469 1088.111 1089.56 1096.464 1102.007 1108.688 1114.789 1121.22 1124.805 1131.628 1137.058 1140.396 1143.045 1143.3 1147.325 1151.727 1157.145 1158.98 1162.871 1165.513 1168.876 1172.022 1173.926 1175.701 1177.012 1177.511 1177.392 1179.004 1180.095 1180.214 1179.574 1180.228 1181.071 1181.57 1180.194 1180.427 1182.858 1183.139 1187.696 1190.393 1194.822 1199.36 1205.934 1210.685 1213.744 1217.141 1219.016 1221.391 1222.244 1224.864 1226.233 1231.382 1233.182 1235.377 1239.427 1243.313 1246.57 1250.673 1253.847 1260.607 1268.646 1275.173 1278.262 1280.561 1283.348 1285.325 1286.844 1289.959 1292.401 1296.601 1298.255 1299.547 1301.194 1303.117 1305.434 1307.752 1309.178 1308.906 1307.218 1304.915 1302.803 1301.09
612.7103 613.8999 615.6785 617.8624 620.2272 621.6398 623.446 626.3712 628.8496 632.9044 636.8725 638.6414 640.8034 644.4903 646.8046 650.1524 652.7218 655.1586 661.6132 662.8127 665.6647 668.5897 673.2792 675.7725 677.6039 679.1019 680.0705 681.8519 684.3677 685.788 687.9399 689.8683 691.6417 693.8633 695.3517 697.1653 698.1349 699.1929 699.6545 701.0337 701.8181 703.5149 705.4895 707.0975 709.4479 711.1985 712.7572 715.4055 716.5555 718.9421 721.1515 723.7595 727.1927 730.5535 733.3851 741.4719 744.067 746.1922 749.2595 752.2722 755.5543 757.9167 760.9498 764.1339 767.5511 769.229 771.3085 773.697 779.2845 781.9978 789.2094 791.9968 794.1506 797.1895 799.6108 803.5477 807.8724 810.8508 813.1616 815.7371 818.8351 821.5106 823.0392 823.6794 824.859 827.9207 828.7597 829.4752 829.7715 830.8598 831.566 831.7027 832.4753 834.7264 837.3217 837.7365 836.9214 836.9651 837.7348 840.1442 841.7415 844.6614 847.332 850.0403 852.6667 855.4302 857.8765 864.2543 868.0184 877.9755 880.5868 882.3667 883.5865 883.5546 884.807 885.4065 886.3657 887.2913 887.826 888.1005 888.4327 889.2614 891.4 892.6566 894.0311 894.7616 895.3619 896.7356 899.0088 901.0375 905.4185 904.4833 906.6602 909.2358 910.5081 912.4525 916.3597 918.7643 920.9226 921.7588 924.0364 924.2372 923.4227 922.7253 924.2314 926.1128 925.6963 924.7073 923.9786 922.8481 923.8596 927.2046 929.1502 931.1235 934.4533 937.5233 942.4197 947.0348 947.1684 947.7228 947.6137 947.9785 946.9113 946.9162 946.3968 947.5532 948.7914 949.5474 950.4064 951.0256 951.861 952.8792 953.7902 955.2457 956.1242 957.3665 959.7598 962.033 966.5026 968.3417 974.348 975.3173 978.4627 979.5654 979.2068 979.8801 980.9256 982.0983 983.0571 984.1667 985.6899 986.9849 987.1945 987.3649 987.045 986.8223 986.111 986.1855 987.1677 986.9072 986.6399 986.5505 986.5918 988.762 991.3002 994.5189 994.5232 995.0747 997.6832 999.2247 1001.919 1002.15 1005.158 1007.623 1006.926 1007.485 1010.856 1013.337 1014.564 1017.539 1019.992 1020.061 1019.738 1019.628 1021.014 1021.723 1022.767 1024.368 1025.818 1026.117 1027.186 1029.488 1030.496 1032.659 1033.059 1035.702 1039.053 1040.333 1042.257 1045.836 1048.553 1050.864 1052.819 1054.601 1055.532 1056.157 1057.151 1059.053 1061.541 1065.278 1068.032 1070.62 1073.936 1079.187 1084.225 1087.825 1090.578 1092.135 1099.073 1104.574 1110.701 1116.511 1121.466 1126.318 1133.234 1138.697 1141.598 1145.241 1147.997 1152.382 1155.997 1158.246 1160.8 1163.381 1168.161 1170.536 1173.428 1175.179 1177.351 1179.726 1181.109 1183.191 1183.122 1183.365 1184.521 1183.686 1183.792 1185.22 1185.275 1184.857 1184.93 1185.843 1186.398 1189.397 1196.435 1202.099 1203.923 1208.063 1212.389 1215.541 1219.158 1222.338 1224.851 1227.254 1229.917 1230.937 1233.274 1239.949 1240.161 1245.779 1251.171 1250.646 1254.436 1255.395 1258.238 1270.712 1273.991 1280.906 1282.855 1286.12 1288.765 1290.151 1291.747 1294.16 1296.927 1300.319 1302.208 1304.291 1305.628 1306.846 1308.949 1310.356 1310.898 1310.057 1309.016 1307.458 1305.772
612.359 614.2221 615.9368 618.2423 620.5989 622.5292 624.6531 627.0945 628.972 632.3623 635.9778 638.1663 640.2345 643.4014 646.9753 650.0013 652.7097 655.5988 661.6908 662.9399 666.822 670.6061 673.125 675.8295 678.2361 679.7261 680.8984 682.0932 684.4128 686.0171 688.2729 690.2834 692.5818 694.6261 696.4263 697.7827 698.7268 700.9734 701.1071 701.5403 702.9156 704.2629 705.8112 707.6483 709.5032 712.2059 713.6896 716.3997 718.9047 719.909 722.6432 725.6267 728.9797 733.0881 739.5396 744.1088 746.113 747.8242 750.8793 755.1531 756.9766 760.8244 762.6575 765.7108 769.0217 771.0705 773.175 778.7406 781.5441 786.7085 792.8713 794.2619 797.2197 799.4569 805.0421 806.1696 808.9949 813.1932 817.0301 819.4843 821.3918 824.7206 826.187 826.9883 828.0063 829.603 830.3312 831.0736 831.6738 833.2793 834.6887 834.5751 835.2054 837.2117 838.2363 840.254 840.2629 839.461 840.6636 842.26 844.7272 847.7902 850.3143 853.0923 856.6784 858.2625 860.6158 864.8371 869.5453 879.2056 881.436 882.7906 884.7833 885.2813 885.9506 886.6251 887.8246 888.2601 889.1736 889.7798 889.745 891.0349 893.0553 894.7925 896.3064 896.8994 898.0252 899.7032 900.9789 903.8801 907.0157 907.7831 909.91 912.4076 914.9506 918.4727 919.903 922.6953 925.8633 928.6154 928.4416 928.8846 930.7034 929.4003 928.0656 929.4 929.6497 929.8779 932.315 931.4704 927.8637 928.7814 931.281 932.6384 935.8211 939.3118 946.4261 948.2042 949.5423 950.1753 950.3085 950.1761 948.5818 948.8091 949.1731 950.1231 951.225 951.7441 952.9944 953.5939 954.4065 955.5726 956.5786 957.6559 959.7533 961.416 964.3123 965.1011 969.4509 974.3233 976.7844 980.1822 981.721 982.1273 982.9163 983.232 985.0126 986.1985 988.4549 989.2172 989.5978 990.5886 990.3615 989.9833 990.3043 990.2925 989.4603 990.068 990.36 991.3928 991.1188 990.5676 990.3089 993.0089 995.613 997.7729 997.8937 999.7211 1000.35 1001.835 1004.973 1006.256 1007.565 1009.301 1010.268 1010.083 1013.053 1015.672 1016.612 1018.232 1021.509 1024.002 1024.279 1022.974 1023.051 1023.794 1025.145 1025.648 1027.414 1028.576 1029.473 1031.45 1033.888 1034.855 1036.451 1037.498 1040.309 1043.044 1044.991 1046.158 1049.325 1052.699 1054.552 1057.172 1058.901 1059.855 1060.256 1061.588 1062.897 1068.042 1069.885 1072.756 1077.603 1082.251 1086.151 1089.554 1093.535 1095.313 1100.659 1104.826 1109.316 1117.138 1123.821 1127.318 1133.964 1139.551 1143.579 1147.43 1151.466 1155.849 1158.966 1160.394 1161.909 1164.839 1168.487 1172.034 1174.956 1177.925 1181.097 1182.601 1184.263 1186.976 1187.57 1186.984 1187.736 1188.196 1188.073 1188.421 1189.27 1189.151 1188.401 1189.021 1189.807 1192.455 1199.112 1205.364 1208.098 1211.163 1214.187 1217.81 1220.85 1224.404 1226.708 1230.116 1232.96 1235.584 1237.186 1242.859 1247.055 1251.381 1254.548 1256.692 1259.976 1259.549 1260.854 1264.844 1278.525 1284.35 1285.229 1290.147 1291.793 1294.233 1295.231 1296.508 1298.839 1301.746 1304.499 1306.959 1308.177 1309.333 1310.705 1312.022 1312.726 1312.963 1314.199 1314.893 1313.149
612.4141 614.1732 615.9202 617.865 620.6027 622.5333 625.6157 627.7195 629.1826 632.62 636.5964 638.9917 640.749 644.0801 645.953 648.8845 651.4286 655.6092 659.2637 661.8544 667.9778 670.0786 672.7242 675.8989 678.0356 679.5427 681.2723 682.4921 684.856 686.5615 688.5226 690.5978 693.4112 695.487 697.1248 698.3164 699.891 701.9981 702.9382 703.351 703.9034 705.1273 706.1002 707.4736 710.2194 712.4982 714.9203 716.5826 718.4769 721.0576 724.4613 728.345 736.8856 739.1025 742.6738 746.5967 747.3969 748.9901 753.3158 756.5831 758.2632 761.3435 764.796 767.8848 770.8591 773.8935 775.7261 779.7155 783.2072 789.2085 793.5137 796.0035 799.8593 803.4457 806.4136 811.4187 814.4553 817.5506 820.3464 822.1144 825.7272 827.6453 829.4291 830.1526 829.3741 831.5527 832.4938 833.1458 834.2318 835.2954 835.9717 837.1827 838.0951 838.7106 840.2528 841.8968 843.3106 842.4479 843.3709 845.6223 847.9952 851.1854 853.764 856.1627 859.4208 861.7336 863.9831 866.5134 875.4449 879.6274 881.9153 883.9489 884.9886 886.7046 887.0317 888.1952 889.5939 890.0677 889.5139 891.1376 891.9325 893.2953 894.742 896.3227 897.7692 899.0737 899.8458 901.2205 903.2892 905.718 908.4967 910.7499 914.4644 915.6428 920.0333 922.8362 925.687 926.7681 931.5667 933.9429 933.6026 935.9273 935.9489 936.2944 936.358 934.7698 935.4266 935.4578 936.6357 934.8046 931.4108 931.3176 933.3389 934.6849 937.8998 941.7833 946.5496 950.8223 952.162 952.6627 952.8207 952.2083 950.3217 951.515 953.2551 953.3993 954.3007 955.033 955.371 956.4463 956.946 958.3583 959.3148 960.4 963.5673 965.247 967.4659 969.7909 973.576 979.7314 980.0495 982.9209 984.0602 988.6878 990.0435 990.5595 990.0666 990.7885 992.6006 994.1489 994.0206 993.7761 993.3174 992.5255 993.4988 993.7637 993.103 993.729 993.7509 994.3907 994.1537 994.2258 993.9522 996.1955 998.7425 999.9473 1002.814 1002.427 1004.357 1005.611 1007.338 1010.507 1009.701 1012.382 1013.318 1012.248 1015.293 1016.764 1018.876 1019.417 1021.695 1023.983 1025.558 1024.652 1024.742 1025.917 1027.812 1028.489 1030.674 1031.599 1032.149 1033.335 1036.492 1037.389 1038.391 1039.839 1042.716 1044.525 1047.228 1048.271 1049.095 1052.525 1056.45 1059.016 1061.41 1063.266 1064.027 1064.72 1066.309 1069.679 1073.618 1076.384 1078.466 1083.44 1089.422 1093.43 1096.139 1097.974 1102.648 1106.99 1111.68 1119.797 1126.629 1129.938 1135.031 1141.83 1145.67 1150.835 1155.425 1158.195 1161.614 1164.9 1165.02 1167.093 1169.778 1173.617 1176.026 1179.837 1183.254 1185.315 1187.666 1189.738 1193.365 1191.672 1191.792 1191.766 1192.448 1192 1192.43 1192.593 1191.86 1192.365 1192.716 1195.158 1202.976 1207.382 1210.846 1213.703 1216.834 1220.515 1223.608 1226.064 1228.925 1231.544 1234.987 1239.467 1241.53 1245.53 1249.349 1253.699 1258.02 1261.929 1264.345 1264.965 1264.743 1269.566 1271.612 1279.462 1291.167 1295.691 1294.947 1297.59 1298.629 1299.257 1301.001 1303.25 1306.6 1310.156 1310.542 1311.392 1312.732 1313.666 1314.748 1316.148 1318.117 1319.006 1317.964
612.3822 613.5397 614.7051 616.9124 619.3198 621.8425 625.0358 627.2571 628.8265 632.9799 636.8688 639.3214 641.1656 645.2566 647.4995 649.372 652.3644 655.9966 659.5696 661.8421 666.1926 669.8083 673.092 675.7737 678.4548 680.3303 681.6946 683.2426 684.8707 686.5759 688.8019 691.132 693.3843 695.8135 697.4329 699.0695 700.5764 701.8702 703.0239 704.0881 705.0721 705.8792 706.5217 708.1547 710.4502 712.8133 715.9048 719.0262 720.5789 723.591 726.9754 730.3165 737.12 741.2496 744.4384 746.6053 748.8333 751.1972 754.5383 757.9255 760.3674 763.173 766.2176 769.5112 773.2153 775.4701 778.2221 780.9263 785.7356 791.3257 796.9017 800.4907 803.0491 805.7403 812.2378 814.7477 819.1534 820.7753 821.9236 825.218 828.7636 830.6667 832.347 832.0862 831.0671 832.8124 834.5207 834.9011 836.1093 837.3954 837.8409 838.832 840.1962 841.1403 842.9198 844.0724 845.5352 845.8943 846.9631 848.9666 851.0662 853.7325 856.5197 859.3686 862.087 864.6918 866.8733 869.6553 876.4696 880.8662 882.9797 884.5696 886.1429 887.2735 888.2342 889.291 891.5403 891.9664 891.6654 891.9509 893.4476 894.5206 896.2884 898.5637 899.5615 901.0552 901.804 903.2667 905.3356 907.8122 910.9194 914.2237 916.5228 919.4126 924.4554 925.675 929.659 933.9592 935.0079 938.2523 939.7521 940.6807 941.465 943.0035 941.536 940.1064 938.9135 939.0596 938.5953 937.2473 935.474 934.4693 935.7629 937.298 938.8898 944.7534 948.1563 951.7948 954.2081 956.2019 954.7684 954.2209 952.9229 953.6453 954.7602 956.5112 956.9283 957.8488 957.9536 959.2542 960.2415 961.2875 962.6301 964.0823 967.1242 969.3586 971.905 974.0708 978.3045 982.6475 984.3463 987.0065 990.9438 992.5992 993.984 994.63 995.915 995.954 997.7298 998.3635 996.8597 996.2328 995.9907 995.8499 997.2509 997.6857 996.7036 997.3729 997.271 997.9347 998.2774 999.314 998.329 1000.255 1002.829 1003.832 1006.651 1006.568 1007.414 1009.204 1011.292 1012.805 1012.013 1013.788 1015.779 1014.893 1016.522 1019.199 1020.449 1021.728 1022.887 1024.574 1026.279 1026.578 1026.515 1028.005 1030.494 1033.383 1035.055 1035.726 1035.395 1036.339 1038.937 1040.76 1041.816 1042.981 1045.084 1046.668 1048.8 1051.358 1052.198 1055.051 1058.584 1061.504 1063.908 1066.342 1067.726 1068.106 1069.392 1071.111 1076.719 1078.291 1080.559 1085.704 1092.081 1096.195 1098.974 1101.211 1111.011 1109.975 1112.696 1119.417 1128.029 1133.229 1135.711 1144.397 1148.957 1153.301 1157.71 1160.924 1165.389 1166.414 1167.576 1170.033 1171.965 1175.015 1178.484 1181.836 1184.121 1187.768 1190.623 1193.042 1195.918 1196.138 1195.334 1195.913 1195.583 1196.073 1196.609 1197.151 1197.036 1196.834 1195.806 1197.009 1202.14 1210.81 1213.257 1215.921 1219.033 1223.605 1225.891 1228.641 1230.997 1234.307 1238.32 1242.195 1245.133 1248.959 1252.135 1257.25 1260.89 1265.41 1268.356 1269.222 1268.81 1275.455 1275.149 1278.73 1292.714 1297.741 1300.48 1301.933 1304.163 1304.652 1303.606 1305.704 1308.423 1312.151 1313.423 1313.92 1314.891 1316.315 1317.729 1318.794 1319.958 1320.568 1320.813
611.73 613.0234 615.0405 616.7338 618.6825 621.8828 624.8502 626.9229 629.0623 632.9726 635.7739 638.5164 640.7554 644.4293 647.3295 648.4178 651.6196 655.1382 659.3524 662.272 665.8035 670.3019 672.9985 675.7797 678.3231 680.7345 682.3566 684.011 685.5958 687.1584 689.2332 692.0645 694.1271 695.4431 697.548 699.0632 700.0091 701.3286 702.9518 704.119 705.1712 707.265 708.0507 709.6384 711.4857 714.3596 717.072 719.7253 722.0944 725.1078 727.9611 731.8332 739.6537 741.9166 745.538 749.9238 750.44 753.0911 756.549 760.0578 762.9103 765.0458 767.0671 770.4697 773.9318 777.2814 780.4535 783.194 788.7346 793.1168 799.2904 802.1785 804.1129 809.333 815.1246 818.8533 821.5117 823.4919 825.7097 829.1074 831.2039 833.4045 834.5508 834.0577 834.077 834.3553 836.9498 837.0034 837.7271 838.3906 839.7003 841.0846 842.7308 843.5554 845.1715 846.418 847.775 850.9276 855.4248 854.9355 860.5178 861.0417 861.5245 862.8126 866.0396 867.9032 870.8741 874.1419 880.9821 883.0299 884.3179 886.0021 887.247 888.5634 889.6973 890.4825 892.5254 893.1411 893.9231 893.9606 895.0783 896.8192 898.4846 900.454 901.7551 902.7433 904.3386 905.7786 907.5782 909.7968 914.3672 917.167 920.0258 925.7204 933.8582 935.6509 934.224 937.7449 939.2799 943.1956 944.1844 943.7778 946.8632 945.9666 944.4161 942.7816 942.379 942.3318 940.9905 941.6466 939.2345 937.6127 938.6425 939.8434 940.957 946.3005 950.0963 952.3604 954.7296 957.0158 955.3015 956.4189 956.3441 956.6359 957.6416 959.1437 960.7094 960.6154 961.2994 962.1185 963.5411 964.4254 965.7084 967.4843 970.7585 974.2256 979.9965 980.5998 984.5102 991.7371 993.8769 994.2122 994.8891 1001.41 1007.045 1007.976 1007.087 1005.198 1002.284 1001.088 999.814 998.8925 999.0765 999.2846 1000.787 1001.127 1000.122 1000.838 1001.032 1002.292 1002.374 1003.07 1002.561 1003.34 1005.619 1006.768 1009.47 1010.055 1010.828 1012.978 1014.252 1016.053 1013.9 1017.187 1018.367 1017.018 1017.9 1020.626 1022.386 1024.315 1025.254 1026.348 1027.709 1028.809 1029.877 1030.84 1034.228 1034.748 1037.428 1039.059 1038.807 1040.445 1040.621 1043.186 1044.613 1045.524 1047.818 1049.75 1050.48 1053.36 1056.249 1058.761 1059.499 1062.907 1065.993 1068.597 1071.103 1072.228 1072.667 1073.685 1076.167 1079.818 1082.726 1086.861 1092.153 1098.446 1102.494 1104.007 1110.898 1113.688 1115.68 1123.659 1129.407 1133.199 1138.158 1145.282 1151.938 1156.578 1159.658 1163.432 1165.828 1168.259 1171.554 1173.136 1175.198 1176.941 1179.894 1183.682 1188.673 1190.69 1193.738 1195.707 1198.989 1199.771 1199.872 1199.892 1199.936 1199.731 1199.925 1200.841 1201.622 1201.067 1200.459 1200.202 1202.733 1210.623 1215.596 1218.042 1222.677 1226.199 1228.99 1231.044 1233.721 1237.922 1242.737 1245.491 1247.832 1251.587 1255.746 1259.052 1263.394 1268.572 1270.915 1273.642 1273.363 1279.098 1282.689 1283.225 1286.707 1300.576 1303.948 1305.952 1306.86 1307.8 1309.464 1306.972 1310.83 1313.185 1314.797 1316.995 1320.239 1322.693 1323.9 1322.06 1321.971 1323.441 1324.09
611.4421 613.1706 615.6006 616.7985 619.3107 622.7523 625.5821 627.9785 629.8418 634.0242 635.2766 638.1072 640.3193 643.8814 646.6769 649.385 652.0043 654.7662 657.6968 663.0588 666.5383 670.3285 672.662 675.4416 676.9742 680.6764 682.5884 684.1374 686.5165 688.6548 690.032 691.9557 694.1738 695.4412 697.3533 698.6663 699.8219 702.0504 704.092 705.3222 706.8382 708.0526 709.3719 710.7645 713.3198 715.7185 718.9182 720.9272 724.2969 727.5609 730.6895 738.7836 741.0996 743.3252 746.2366 749.2023 751.4606 754.6396 758.5949 761.3904 764.3865 767.2643 769.4359 772.7089 776.0413 779.5958 782.6732 785.9052 792.593 798.0914 801.8176 804.0741 807.2692 813.5142 818.301 821.9122 824.4969 826.5764 827.622 830.3279 833.6271 835.388 836.1061 836.5827 836.7503 835.6734 837.5923 839.2646 839.3088 840.1048 841.0748 842.4213 843.7982 845.1536 846.6898 848.5513 851.0151 854.0281 858.0032 862.6002 866.4292 869.7054 871.1678 871.4253 871.8224 872.0855 875.3646 880.0231 883.9119 884.7522 886.0908 886.8089 888.2966 890.1184 891.7454 891.4985 892.693 893.813 895.0645 895.7735 896.821 898.9741 900.808 901.9084 903.2845 904.6526 906.3076 908.2617 910.1075 914.7946 917.9706 920.1767 924.1682 931.3697 937.9053 938.7244 939.1189 939.6459 942.6818 946.3979 948.1691 948.8611 948.9522 947.9402 946.7814 946.3155 945.5425 945.8463 946.2023 945.9129 943.919 942.1012 940.8745 942.3206 943.5691 947.9731 953.2631 954.6677 956.2504 956.792 956.8408 957.4011 958.8218 959.0111 959.7404 961.7067 963.4931 964.2249 964.5688 965.5545 966.6571 967.9028 969.3497 970.8698 975.1296 981.1423 983.6392 984.9116 985.675 996.0247 998.876 1003.773 1006.814 1007.23 1009.993 1010.619 1009.832 1008.395 1005.942 1003.829 1002.391 1001.635 1001.514 1002.289 1004.178 1003.896 1002.8 1003.895 1005.535 1006.556 1006.387 1007.76 1007.171 1007.021 1009.435 1010.446 1012.602 1013.843 1015.285 1016.547 1017.632 1017.389 1016.847 1019.432 1020.488 1020.901 1020.633 1021.917 1024.492 1025.739 1027.576 1029.029 1029.867 1031.341 1032.779 1034.431 1035.046 1037.85 1038.321 1042.144 1042.972 1043.598 1043.681 1046.508 1047.058 1048.446 1050.094 1052.534 1053.634 1055.951 1059.04 1061.414 1062.011 1063.542 1067.134 1070.792 1073.688 1075.271 1076.412 1077.178 1078.74 1080.587 1084.526 1087.585 1094.491 1102.679 1105.39 1107.558 1110.102 1114.306 1118.285 1123.867 1129.752 1133.832 1141.07 1147.117 1154.362 1158.926 1162.297 1165.96 1169.279 1171.097 1174.108 1175.697 1178.469 1180.887 1183.724 1185.312 1191.988 1194.1 1196.685 1199.187 1201.684 1203.289 1204.052 1205.533 1205.725 1204.068 1204.273 1204.872 1205.96 1204.942 1203.959 1203.821 1205.346 1208.913 1214.965 1219.915 1226.146 1230.685 1232.765 1235.277 1237.423 1241.033 1245.478 1248.847 1251.277 1254.149 1258.528 1262.023 1266.692 1270.072 1274.87 1277.95 1277.759 1280.989 1290.169 1290.58 1291.641 1296.975 1303.699 1307.435 1309.637 1310.566 1312.302 1312.809 1313.849 1315.599 1317.138 1320.766 1324.547 1326 1327.496 1329.342 1329.254 1327.512 1328.546
611.4589 612.9578 615.2018 617.3514 619.5984 623.0662 626.0618 627.46 629.9904 633.9888 635.5959 638.0876 640.6916 644.0273 646.7753 649.5288 651.9058 655.0695 658.3373 663.463 667.0424 669.9701 672.1796 675.1677 679.0021 680.8527 682.621 684.8124 685.4554 687.5895 690.5961 692.6047 694.1854 695.1597 697.0179 698.4681 699.1672 701.0845 703.1855 705.4647 706.5829 707.9752 710.2648 711.8211 714.0506 717.3383 720.3026 725.0878 728.0729 732.0015 736.001 739.7224 741.7501 744.5698 747.213 749.7426 752.7344 756.6881 760.0513 762.605 766.0842 769.9387 771.973 775.618 779.0511 784.791 787.2065 789.8685 793.1745 798.7582 802.3763 805.8103 810.9938 814.9598 821.7278 824.1155 826.9628 828.556 830.0204 831.731 834.8816 836.6002 838.2698 838.764 839.3539 839.288 838.3214 841.7052 841.3984 842.092 842.6795 843.1884 845.3141 846.7448 848.6418 851.6359 854.4772 859.4437 860.9608 865.7834 872.0924 873.4059 875.3811 877.1535 880.3533 881.8119 882.4631 883.868 885.6429 886.9215 887.2888 887.966 888.9327 890.622 892.7039 893.2917 893.8939 894.933 896.1263 898.0283 899.4363 901.6198 902.9493 904.1009 905.9724 907.4164 911.0056 910.5883 913.1923 915.8322 920.157 926.5065 933.8245 933.9089 939.7361 941.5792 942.7939 944.3514 947.3206 950.0358 951.295 951.8739 951.9236 950.6214 950.7201 952.0875 951.2292 950.0905 949.7349 948.6143 947.3774 945.6595 944.4355 945.4559 946.689 951.1106 956.5492 956.836 958.5715 958.1062 958.8984 959.494 960.9797 962.5862 962.7346 964.276 966.2133 967.215 968.494 969.2245 970.3985 971.2128 972.8165 975.7875 982.1603 985.5652 987.7079 989.1453 991.8299 998.9277 1003.616 1007.493 1009.711 1012.115 1012.822 1013.368 1012.082 1010.607 1008.542 1006.522 1005.257 1004.792 1004.507 1005.373 1006.993 1006.887 1007.268 1008.32 1010.033 1013.747 1013.868 1012.457 1011.826 1011.149 1012.26 1015.281 1016.774 1017.878 1017.676 1019.211 1019.168 1018.343 1020.001 1022.083 1022.944 1023.261 1022.579 1023.724 1026.718 1028.885 1029.726 1031.47 1032.587 1034.016 1035.421 1036.462 1037.872 1039.455 1040.721 1042.561 1045.688 1047.115 1047.837 1048.811 1049.294 1050.127 1051.792 1054.431 1057.066 1058.331 1060.676 1064.482 1066.059 1066.189 1067.995 1072.025 1075.353 1077.549 1079.953 1081.222 1082.315 1082.99 1086.719 1090.337 1094.48 1102.903 1106.947 1109.819 1112.381 1116.706 1120.089 1124.439 1129.3 1134.317 1142.639 1148.727 1155.717 1159.604 1164.194 1167.592 1170.802 1173.671 1175.749 1178.145 1181.882 1184.152 1187.8 1188.729 1194.949 1196.965 1198.438 1201.182 1204.568 1206.003 1207.752 1208.815 1209.508 1208.725 1209.063 1209.154 1210.521 1208.948 1209.373 1209.195 1209.072 1210.81 1214.504 1224.499 1229.845 1232.732 1235.748 1238.252 1240.182 1244.905 1248.881 1252.587 1255.274 1257.951 1261.884 1266.257 1270.922 1273.75 1278 1281.929 1282.777 1288.962 1292.679 1294.241 1294.188 1296.085 1301.908 1307.838 1310.319 1312.984 1314.732 1316.163 1317.026 1318.381 1320.937 1325.27 1326.636 1329.796 1332.569 1332.882 1334.142 1333.557 1333.894
611.8412 613.1057 615.291 617.7826 620.3471 623.36 626.7174 628.8252 631.6949 634.6384 637.4523 640.1313 642.1083 644.1855 646.8967 649.796 652.3277 655.0523 659.498 664.848 667.8043 669.9479 671.9626 675.8911 678.4761 680.2669 683.4894 684.9389 685.8748 687.2237 689.5934 691.9465 693.2996 695.4749 697.0196 698.1937 700.1248 701.5494 703.1818 704.6764 706.8609 708.9463 710.8061 713.5387 716.0734 718.512 722.0495 727.1674 730.4069 734.2877 737.9706 740.1251 743.1412 745.1478 748.0107 750.3821 753.6352 757.9515 761.3055 764.1608 767.678 771.5805 774.1531 778.14 782.0748 787.8587 791.0809 793.65 796.8003 799.2855 802.6443 806.7987 814.8362 822.1226 823.7126 825.5502 828.1675 830.2988 831.1331 833.3259 836.1788 838.2315 840.2587 840.433 841.6132 840.7967 840.0895 842.2975 843.9738 843.7725 844.2899 845.2963 846.7187 849.0219 852.3672 855.1713 858.371 862.1202 865.3279 872.0178 873.96 877.3102 879.155 880.2731 882.3361 883.7039 885.5751 886.782 887.7329 888.6094 889.0515 890.212 891.4922 892.1 892.9623 894.3094 895.4468 896.8598 899.0045 900.5599 902.5345 903.746 905.1392 906.8614 908.3756 909.436 911.4171 913.0342 915.8266 918.5357 923.9662 928.6367 937.7762 939.9784 942.9689 946.2094 946.4712 947.9568 950.7637 953.1992 955.1221 954.9721 954.4596 955.4796 956.1241 955.283 954.5375 953.2021 952.1505 952.8092 952.1742 950.4521 948.8378 948.3354 950.17 957.1988 959.5708 959.4832 961.0985 961.0925 962.3662 963.8173 964.025 965.9683 966.3176 966.9249 968.8912 969.8482 971.5241 972.7887 973.9122 975.1022 975.9045 978.4155 984.4435 989.2759 994.0927 998.1025 1000.41 1001.43 1008.789 1010.71 1013.395 1015.69 1015.986 1015.673 1014.577 1013.145 1011.362 1009.664 1007.975 1008.33 1007.867 1008.617 1010.083 1011.789 1011.939 1013.914 1016.57 1017.499 1016.325 1016.452 1015.431 1015.728 1016.137 1018.879 1019.904 1020.346 1020.376 1020.904 1020.403 1021.156 1022.979 1024.991 1025.967 1025.443 1024.511 1026.867 1028.501 1031.889 1033.098 1033.99 1034.551 1035.843 1037.512 1038.821 1040.02 1042.205 1043.384 1045.197 1046.817 1048.854 1050.745 1050.296 1051.483 1052.62 1053.614 1056.645 1060.071 1061.385 1062.911 1066.178 1069.443 1070.291 1071.415 1072.942 1076.177 1078.808 1081.896 1084.196 1085.975 1086.167 1088.298 1092.513 1097.194 1103.189 1107.711 1111.779 1114.949 1118.472 1122.704 1126.821 1131.636 1137.412 1142.897 1148.528 1157.783 1162.636 1166.575 1169.694 1172.126 1175.991 1178.702 1182.931 1184.168 1187.296 1191.29 1193.212 1196.767 1199.439 1201.589 1203.01 1206.014 1209.263 1210.869 1212.999 1214.521 1213.724 1214.561 1214.933 1214.08 1213.731 1216.245 1215.093 1213.289 1214.4 1216.264 1227.497 1232.832 1235.22 1238.175 1241.448 1245.095 1249.751 1253.147 1256.301 1259.4 1262.313 1265.523 1270.355 1275.258 1278.713 1281.161 1285.036 1287.52 1292.552 1295.174 1297.249 1298.335 1299.719 1302.755 1307.065 1310.672 1313.881 1317.005 1320.511 1320.796 1323.109 1325.059 1327.648 1329.933 1333.27 1335.878 1336.054 1336.761 1338.091 1337.287
